ply
format ascii 1.0
comment VCGLIB generated
element vertex 709
property float x
property float y
property float z
property float nx
property float ny
property float nz
element face 0
property list uchar int vertex_indices
end_header
0.02373957 0.04313713 0.03025295 -0.93586 -0.1766241 -0.3037069 
0.01973667 0.03679157 0.04065736 -0.9246985 0.08310586 -0.3712861 
-0.005451908 -0.08302068 -0.03437566 0.8102028 0.5421144 -0.2179332 
0.02816497 -0.03327539 -0.006591995 -0.3429538 -0.4085399 0.845809 
-0.001362099 -0.08102947 -0.02053007 0.06477382 0.6168893 -0.7750874 
0.03264793 0.0371358 0.01637471 -0.976843 -0.09066612 -0.1914451 
-0.002396148 0.07696534 0.04919565 -0.8683628 -0.4951651 -0.005393735 
0.03237084 0.03740622 0.01761883 -0.9665413 -0.124064 -0.2238846 
-0.0004844012 -0.05657109 -0.01111033 -0.2886412 -0.7509303 0.5914916 
-0.001592729 -0.05765932 0.0308994 0.5433122 0.2923963 -0.78685 
-0.01772355 0.08234088 0.0406032 -0.3525918 -0.5309769 0.7688951 
-0.00681422 -0.05456764 -0.008000316 0.6033325 -0.6663279 0.434593 
0.02304891 0.04724406 0.01963877 -0.4537144 -0.8891965 -0.04536946 
0.008596214 -0.06789689 0.02867576 0.01108342 0.6834465 -0.7293176 
0.006526015 0.03133975 -0.01570833 -0.2178016 -0.3884302 0.8942176 
0.03187146 -0.0443689 0.03505557 -0.4406229 0.03223169 -0.8962833 
0.02458483 -0.04898668 -0.003983421 0.05313931 -0.1000875 0.9934495 
-0.0005659265 -0.04158527 0.03368754 0.5003167 -0.05229884 -0.8640143 
-0.02397484 0.0715397 0.04117389 0.3826202 0.4545577 0.800848 
0.02995056 -0.07145855 -0.05891968 0.7489241 0.6510036 -0.1141316 
-0.01200087 -0.04969221 0.009996365 0.9775521 -0.03779952 -0.2069096 
-0.001695028 0.02527757 -0.0444681 -0.3609977 0.8946091 0.2569821 
-0.01644248 0.06560772 0.06421284 0.6342165 0.7130132 0.2953389 
-0.003061651 0.0777581 0.06027472 -0.7761841 -0.6119404 0.1515253 
-0.01061112 0.06311134 0.05588886 0.696167 0.681869 0.1967709 
0.0132029 -0.06115569 0.03341828 0.05069032 0.4512062 -0.8909007 
0.02503597 0.01797557 -0.04543789 0.9083287 -0.2156714 0.3387074 
0.02744685 0.02074716 -0.07426224 0.4954285 -0.6673713 -0.5232506 
0.03859175 -0.06204145 0.011197 -0.7325792 0.6702166 0.1116502 
-0.0003296048 -0.02421231 0.02722073 0.6701528 -0.299637 -0.6774616 
0.0001009444 0.04716019 0.05717687 0.6725215 0.648182 -0.3568258 
0.01933703 -0.01274413 0.0298824 -0.03008861 -0.1857975 -0.9821044 
-0.008904583 -0.06384854 -0.009276565 0.9839107 0.03178928 -0.1720552 
0.03449357 -0.07262494 -0.05809138 -0.2902381 0.9502342 -0.1030102 
0.03041702 -0.06767219 -0.065873 0.7443763 0.5356152 0.372494 
-0.004338993 -0.07356075 -0.01832865 0.711435 0.691182 0.1166824 
-0.007190133 -0.06215829 -0.01792083 0.6098737 -0.6807213 0.4014381 
0.03465423 0.03322709 0.005133234 -0.9623901 -0.2689061 0.01159152 
0.005135885 0.06657794 0.06600522 -0.6860528 -0.4022138 -0.6056696 
0.006797342 0.0500821 0.01783017 -0.1747465 -0.869936 0.4568561 
0.01646492 -0.02215548 0.03217727 0.03388641 -0.3070707 -0.9508641 
0.01650623 0.04789869 0.05151765 -0.9498405 -0.01272021 -0.3124003 
0.0002817912 -0.033743 0.03280734 0.4662408 -0.2918813 -0.8351021 
0.02432231 0.04393866 0.001251166 -0.1831657 -0.8568792 0.481208 
-0.006678754 -0.005535952 -0.008508279 0.8190898 -0.1840822 0.5431486 
0.03312742 0.01917455 0.006352231 -0.9643683 0.2266382 0.1009501 
0.007946135 0.06199405 0.04046666 -0.4082278 -0.8665352 0.2869688 
0.003534147 -0.02804943 0.0319217 0.3498761 -0.4071455 -0.84352 
0.02839792 -0.03417632 0.03545716 -0.2556347 -0.2453686 -0.9344475 
0.01838711 0.04905346 0.04422164 -0.9505639 -0.05812448 -0.3001106 
0.008760585 0.04674131 0.01088381 0.0272165 -0.9313755 0.3616826 
-0.01953038 0.08755817 0.04900259 -0.005539724 -0.9960866 -0.04407614 
0.01196301 -0.03554588 -0.007063594 0.06268467 0.6950706 0.7159942 
0.0399659 -0.06042744 0.0133265 -0.8463403 0.5319898 0.01661457 
0.01727441 0.03792512 0.04749553 -0.9307793 0.1356991 -0.3391736 
0.02733513 -0.05881044 -0.01329237 0.8768011 0.3743169 0.0926639 
-0.009950881 -6.657383e-05 0.00787105 0.9604269 -0.273809 -0.05069798 
0.002125653 0.05318669 0.02626249 0.7907364 -0.4013406 0.4564658 
-0.0007910514 -0.02818082 -0.008620274 0.4567393 0.5005722 0.7352075 
0.01046973 0.06347407 0.05950407 -0.8442452 -0.4436206 -0.2990467 
-0.00546261 0.03946247 -0.00380272 0.7425061 -0.4842269 0.461007 
-0.006144585 0.03518222 -0.0752174 0.4481337 0.8701538 0.1540232 
0.01754465 0.02969826 0.0425927 -0.8638707 0.2039144 -0.4603665 
0.03596175 -0.06014252 -0.006230671 -0.5473818 0.6621626 0.5041221 
-0.009354407 -0.0630797 0.0162387 0.8745697 0.4134044 -0.2531199 
0.004438309 0.03835931 -0.01102003 -0.1400173 -0.7537758 0.6417984 
-0.001928793 -0.08052529 -0.06795296 -0.302913 -0.8512254 -0.4211822 
-0.002119756 0.04712213 0.03330288 0.9930545 0.02397836 0.07021265 
-0.001294668 -0.0726932 -0.03034766 -0.1650574 -0.8057507 0.5683093 
0.03747711 -0.05551677 -0.01215836 -0.9007423 0.4166897 -0.1121951 
-0.004205104 -0.07358386 -0.02184391 0.6159112 0.7543485 -0.2076755 
-0.03591102 0.08149246 0.0464738 0.7247713 0.4562321 -0.515011 
0.00882406 0.03714464 -0.01176259 0.07834245 -0.6874979 0.7200822 
-0.007783283 0.06910322 0.03884272 -0.2412561 -0.154502 0.9490362 
0.03648867 -0.01265811 -0.004134665 -0.8386627 -0.006382617 0.5443538 
-0.001428504 0.04097029 -0.006526976 0.4319071 -0.742581 0.5056728 
-0.007630933 -0.05121743 0.0264561 0.795401 0.0917265 -0.5989584 
0.03391096 -0.0489965 0.03336961 -0.5342546 0.1292196 -0.8351471 
0.009650622 0.04621388 0.00928415 0.07454108 -0.9457475 0.3159985 
0.02459034 0.01434049 -0.04014781 0.7378534 0.6384364 0.2007916 
0.03456617 -0.03188071 0.001665926 -0.8345462 -0.4331615 0.3070003 
-0.004881167 -0.08436895 -0.04593056 0.9302807 0.3475289 -0.03542127 
0.002828918 0.03660364 -0.01313925 -0.1491734 -0.6602648 0.7357813 
0.00199983 0.01503877 -0.009554809 0.8422995 0.09833847 0.4959201 
0.02483586 -0.02344817 0.03195203 -0.2875115 -0.3315554 -0.8982363 
-2.065852e-05 0.05785776 0.03416188 0.7421101 -0.4449798 0.4987243 
-1.83221e-06 0.01178102 0.02704314 0.7195252 0.4545563 -0.5248632 
0.03719185 -0.06648891 -0.06876568 -0.7739196 0.5120413 -0.3648896 
-0.008372573 -0.06201819 0.02014894 0.8153464 0.4035394 -0.4144067 
0.009144028 0.0288295 0.04743241 0.4115448 0.640415 -0.6455608 
0.003937404 -0.03221568 0.03381817 0.2701979 -0.3243887 -0.9063674 
0.008954604 0.06079761 0.06434785 -0.784075 -0.2294887 -0.5763391 
0.02160241 -0.02490398 -0.01238809 -0.2822131 0.4200727 0.8622208 
-0.02697569 0.08007275 0.03763372 -0.3373949 0.2160097 0.8957701 
-0.004436584 0.02974822 -0.05361635 0.9431908 0.3062464 0.128336 
-0.009297165 -0.003680801 0.01449279 0.8945082 -0.1693307 -0.4132495 
-0.004548712 0.06040901 0.04305508 0.7444026 0.6547293 0.1096575 
0.002927801 0.0577561 0.06916577 -0.05220328 0.3429836 -0.9347218 
-0.004609346 0.08117722 0.06621117 -0.8132585 -0.5174894 0.1630343 
-0.005121145 -0.009233701 -0.01116844 0.7371943 -0.04638163 0.6739862 
0.009673348 -0.03538122 -0.006962616 0.1201257 0.6803916 0.7222748 
-0.003053778 -0.03946944 0.03190324 0.6091856 -0.08034778 -0.7884337 
0.001065703 -0.08710189 -0.05342362 -0.9236749 0.2502207 -0.2841384 
0.01596362 0.008647642 0.03257014 -0.3003869 0.4916849 -0.8153713 
-0.002541304 0.04358805 -0.0003668389 0.2321207 -0.9164993 0.3248533 
0.03019837 0.01168805 -0.04809804 -0.5590834 0.72676 -0.3601762 
0.01791579 0.04784365 0.0139677 -0.02286861 -0.9754768 0.2185453 
0.01179653 -0.0702527 0.005452707 -0.7989175 0.4669802 0.3648565 
-0.01265685 0.08699635 0.05954444 -0.5818666 -0.7862095 -0.1596031 
0.02852808 -0.06507123 0.02909742 -0.3092815 0.6136838 -0.7257152 
0.03303206 -0.04441366 0.03438801 -0.526749 0.03509013 -0.8490815 
-0.009357994 0.03380677 -0.007826837 0.9257983 -0.3480362 0.1405398 
0.02746 -0.02596208 0.03206517 -0.3563556 -0.4298594 -0.8294863 
-0.00570933 0.04398887 0.01011494 0.5804049 -0.8116066 -0.04599493 
0.02852294 0.0153931 -0.004235088 -0.5575299 0.6864877 0.4659179 
0.0257515 0.005644001 0.02506607 -0.6347156 -0.03937804 -0.7712714 
0.02999568 -0.06251353 -0.04357576 0.9071208 -0.3393003 0.223394 
0.001508703 0.04060903 -0.008227517 -0.07477531 -0.875914 0.4765712 
0.00146785 -0.03260096 -0.006438247 0.3661467 0.6212085 0.692071 
0.02641382 0.01052496 -0.06099463 0.9554181 0.2744483 0.08812218 
0.0258729 0.02513766 -0.03488353 0.2613582 -0.901051 0.3434823 
0.026331 -0.06849964 0.02594456 -0.2037646 0.8080431 -0.5525503 
0.03134653 0.007944752 0.01810178 -0.881068 -0.1235003 -0.4556468 
-0.008077949 0.07585613 0.04083762 -0.5390566 -0.08371559 0.8372396 
0.01638868 -0.01978648 -0.01574952 -0.08823843 0.3462954 0.9338734 
-0.002757028 -0.03104672 -0.005111538 0.4771678 0.5804126 0.6596616 
0.01658841 0.01586775 0.03645053 -0.498304 0.4446523 -0.7424688 
0.009771607 0.06035551 0.03795834 -0.3653305 -0.8735806 0.3215343 
0.02745144 -0.04786374 -0.009503558 0.9432924 -0.2254738 0.1554135 
-0.009999344 0.02417749 0.009370383 0.9666688 0.2340479 -0.1019042 
0.03591824 -0.03166797 0.02859248 -0.7592648 -0.3882395 -0.5212135 
0.0194673 0.005035987 -0.01670611 -0.5641926 0.0841828 0.8150488 
0.03003692 0.02067112 -0.02983488 -0.8561026 0.2698149 -0.4216828 
0.02280336 -0.06872723 0.009462663 0.1666944 0.8615731 0.4791333 
0.04082092 -0.0488226 0.003341778 -0.9979038 -0.04802688 -0.006760256 
-0.01034062 0.02378805 0.004173596 0.9407945 0.3374153 -0.02876684 
0.03995202 -0.05320606 -0.001974297 -0.9758285 0.08240123 0.19924 
0.02213433 -0.0694055 0.02589332 -0.1073659 0.8545478 -0.5070058 
0.0031401 0.04887028 0.06333491 0.4160719 0.6308988 -0.6544237 
0.03160025 -0.06282172 -0.06517637 0.3261372 -0.8371512 -0.4332946 
-0.01695092 0.08060791 0.06602924 0.5757945 -0.4611477 -0.6747602 
-0.004325703 -0.08545294 -0.04427431 0.8716022 0.4896998 0.003835375 
-0.010626 -0.04444172 0.0155863 0.9775499 -0.2067398 -0.03930399 
0.02315305 0.04709166 0.0211519 -0.559635 -0.8258112 -0.06260697 
-0.007217291 -0.04834504 0.02737515 0.7802105 0.07950447 -0.6204031 
0.01118215 0.05856437 0.03496 -0.3623479 -0.8561243 0.3677247 
-0.01982198 0.06625143 0.0422515 0.5212147 0.688516 0.4912437 
-0.009061223 -0.02549031 -0.001811896 0.8577123 0.3147867 0.405785 
-0.003922984 -0.05708481 -0.01306215 0.02901728 -0.7964249 0.5935174 
0.04176073 -0.05467948 0.01587442 -0.9922622 0.1047803 -0.06575383 
-0.02383244 0.08104804 0.05981428 0.5935274 -0.360174 -0.7194061 
0.001109305 0.05206945 0.06510569 0.4283896 0.6164094 -0.6599914 
0.03602315 -0.0584635 -0.02239165 -0.7837134 0.5941422 -0.1719634 
0.009802916 -0.05569916 0.03528871 0.08931505 0.2857647 -0.9540761 
0.03327671 0.01502984 -0.06010648 -0.8089092 -0.5781303 -0.01091731 
0.005844865 0.05676861 0.02898366 -0.1086291 -0.8561467 0.5048153 
0.03288686 0.02989834 -0.00891204 -0.9855675 -0.123614 0.1086329 
0.002781066 0.0403913 0.05123681 0.7035014 0.5830307 -0.4059451 
0.0009825107 -0.057748 -0.01169787 -0.3203994 -0.6834347 0.6548633 
0.00937473 -0.02491237 -0.01427793 0.1042817 0.4102086 0.9057931 
-0.02556322 0.07078126 0.06180285 0.5607752 0.2556361 -0.777719 
0.02794126 -0.04441851 -0.006599683 0.7428073 -0.1131821 0.5536211 
0.03776757 -0.04616507 -0.006752051 -0.9379517 -0.1967866 0.2840602 
0.01733855 0.03919964 0.04777527 -0.9367485 0.1118085 -0.3314683 
0.03532215 0.01272684 -0.07122684 -0.8712069 0.451946 -0.1368538 
0.02750017 0.04289706 0.02328364 -0.6595982 -0.6369937 -0.3980432 
0.03067615 -0.06201111 -0.04456689 0.5812768 -0.7509573 0.3082834 
0.03620254 -0.02664489 0.002206746 -0.8032734 0.4099765 0.4319214 
0.02341701 0.03536535 -0.01394115 0.02350863 -0.5175126 0.8512653 
0.03156037 -0.06914721 -0.04771311 0.701535 0.6780919 -0.1529048 
0.03445467 0.001674405 -0.0006883654 -0.8903922 -0.3476314 0.2937812 
0.02959118 0.01100313 -0.06770172 0.3243548 0.934 0.1232868 
0.02201124 -0.02637506 0.03369077 -0.09711751 -0.3422384 -0.9343954 
-0.01049228 -0.02654706 0.004396508 0.9372454 0.3272333 0.1193252 
0.001984784 0.04932126 0.06294237 0.4971743 0.6354144 -0.5899722 
0.0272462 0.00100394 -0.01090854 -0.6647218 -0.2759481 0.6941186 
0.03604055 -0.07015289 -0.06208296 -0.7201031 0.500394 0.4773684 
0.04028521 -0.03891387 0.01540153 -0.9768518 -0.2032662 0.06407203 
0.0004947436 -0.04577931 0.03434453 0.4308992 0.0291472 -0.9017669 
0.02550998 0.02762214 0.03114893 -0.7921818 0.1569725 -0.5897356 
0.04041556 -0.0547932 0.002242577 -0.9022444 0.2338831 0.359356 
0.02944129 0.01178044 0.02148861 -0.8436514 0.1518439 -0.5140729 
0.0090062 0.06540947 0.06058629 -0.8182086 -0.487924 -0.3020191 
-0.007473398 -0.03799843 0.008499306 0.8193597 -0.5343859 0.1977944 
0.02728548 -0.06513458 0.0295112 -0.2237977 0.6231008 -0.7487336 
-0.006392017 0.05616647 0.06262173 0.6360748 0.6933431 -0.3373936 
-0.04054576 0.08599611 0.04240487 0.7991297 -0.06442425 -0.5861808 
0.004676154 -0.06718762 -0.001966259 -0.8105221 -0.4205819 0.2411494 
0.01680163 -0.05213625 -0.003853561 0.06952511 -0.132394 0.9879049 
0.03576749 -0.00566336 -0.003548454 -0.867052 -0.2242233 0.4446868 
0.0007412117 0.03416229 -0.04428661 -0.7303372 -0.6602594 0.1309825 
0.0382911 -0.01477032 -0.0006912206 -0.9231306 0.02837545 0.3828009 
0.007316204 -0.02452033 0.03171454 0.2826059 -0.3350504 -0.8986478 
0.02843391 -0.04558138 0.03622625 -0.2682106 0.07189586 -0.960605 
0.0169506 -0.05886216 0.03454063 -0.02803314 0.3686807 -0.9284507 
0.001853866 -0.06643026 -0.01097961 -0.8021817 -0.5697167 0.1681874 
0.02854473 -0.03216264 -0.005906166 -0.4332199 -0.3250838 0.8395272 
0.03048128 0.02649029 -0.01949769 -0.922423 -0.2032768 0.3223957 
-0.0003677755 0.05298353 0.03226965 0.9716007 0.05996398 0.2248749 
0.02977389 0.02597086 0.02593938 -0.8294213 -0.04092494 -0.555624 
-0.0280343 0.08246599 0.0555502 0.589011 -0.4234914 -0.6877072 
-0.006042554 -0.06785732 -0.0251545 0.574339 -0.4007777 0.6525999 
-0.02627572 0.07162654 0.04315007 0.661088 0.6520849 0.362499 
-0.01235554 -0.05548026 0.00647119 0.989646 0.06586988 -0.1227465 
0.003188692 0.06828499 0.06691132 -0.6401607 -0.4297824 -0.6365969 
0.03462517 0.004217959 0.01073035 -0.9416464 -0.3173227 -0.1111749 
-0.01006458 0.03680768 0.01133924 0.9686264 -0.2206265 -0.1125231 
0.001021345 -0.07278524 -0.01166782 -0.4203602 0.8725163 -0.2463153 
-0.01649336 0.06374712 0.0439934 0.3923656 0.8969954 0.1996645 
-0.02541853 0.06953961 0.05103888 0.7829198 0.5612611 -0.2630395 
0.02364925 -0.04757008 -0.003775175 0.08371529 -0.119165 0.9892749 
-0.007662166 -0.01222337 -0.008268522 0.8037915 0.001752319 0.59426 
0.02833566 -0.01871153 -0.01113084 -0.6238084 0.2321337 0.7461455 
-0.002292694 -0.02179081 -0.01101652 0.5309103 0.3238715 0.7827051 
-0.001148536 -0.08328119 -0.02341196 -0.00840879 0.9548415 -0.2285276 
0.002314746 0.04789781 0.01799634 0.7041665 -0.693037 0.1470306 
0.0007831684 -0.08914264 -0.05551017 -0.7710191 0.5775317 -0.2549902 
0.02815669 -0.05272988 -0.01501025 0.9988117 0.02574355 0.02518468 
0.01921156 0.05311255 0.03761364 -0.8700248 -0.4919074 -0.01031107 
-0.004595336 -0.03403514 -0.001173349 0.6712191 0.454842 0.5815428 
-0.002643387 0.0430629 -0.07029582 -0.1064938 -0.9037778 -0.3880542 
0.02858773 -0.06263005 0.03084702 -0.3426095 0.5276558 -0.7769027 
0.0405345 -0.03840229 0.007022073 -0.9036521 -0.4225435 -0.0384935 
-0.01869013 0.07701679 0.06661591 0.6571209 -0.326676 -0.6792377 
0.03148824 -0.05918558 -0.07009536 0.2007627 -0.9367517 -0.2664448 
-0.002436557 0.05003097 0.05740615 0.7139285 0.6413301 -0.2806667 
0.03409399 0.0127714 -0.06071994 -0.9892326 -0.1129121 0.06598926 
-0.01129655 0.02826124 -0.004777084 0.985711 0.09717786 0.1333032 
0.03481142 -0.06161496 -0.06678317 -0.4156471 -0.6714728 -0.6004902 
-0.001799808 -0.004487935 0.02304697 0.5806648 -0.1375143 -0.8023844 
-0.006681464 0.001064324 -0.00487426 0.8144243 -0.3173131 0.485615 
-0.002628557 -0.07835985 -0.04102856 -0.0366435 -0.9380087 0.3361485 
0.003613957 0.003479175 0.02612338 0.554633 0.2355247 -0.797846 
0.02954211 -0.06618968 -0.06838366 0.7767239 0.5601455 -0.2784559 
0.02838942 0.01135474 -0.06645412 0.5737898 0.7659885 0.262313 
0.01776888 0.04791746 0.04743349 -0.9623756 -0.06482172 -0.2632165 
0.03449303 -0.04528751 0.0333278 -0.6062066 0.04877729 -0.7936928 
-0.01129572 -0.009341571 0.01147449 0.9580913 -0.1239781 -0.258208 
0.01333719 0.0163592 -0.01805012 0.0688078 -0.0938579 0.9926656 
0.02819365 -0.06428353 -0.07019687 0.9660523 0.08822326 -0.2126936 
0.02874836 -0.0674312 -0.05846567 0.9586813 -0.1798452 -0.1889147 
0.03699655 -0.02110241 0.02131436 -0.8403183 -0.03788206 -0.5404901 
0.02909942 0.01971453 -0.02552725 -0.9880576 0.02363929 -0.142972 
-0.008086108 0.02892743 -0.01641938 0.9080204 0.2549413 0.3179735 
0.03166118 -0.04815063 -0.02097215 0.05786005 -0.8091339 0.567668 
0.0003310386 0.05060094 0.06291436 0.5466279 0.6544923 -0.52171 
-0.006220138 0.03389555 -0.06311906 0.98307 0.1448519 0.09883431 
-0.03976327 0.09055944 0.03924737 0.6340263 -0.7608088 -0.1198194 
0.002574446 -0.02163985 -0.01385197 0.4018556 0.3803742 0.8328124 
0.01818945 -0.01340059 -0.01707166 -0.2262818 0.1632231 0.9602087 
0.02436849 0.01648647 0.03051626 -0.6874981 0.3689891 -0.6250628 
0.03570256 -0.05863429 -0.008030331 -0.5669422 0.5680566 0.5948335 
0.02001874 0.03160978 -0.01559103 0.03669188 -0.399147 0.9158432 
-0.01255978 -0.04791213 0.005986121 0.9829533 -0.1549718 -0.09582 
0.01507434 -0.04577527 -0.002768449 0.01781433 -0.1337767 0.9906492 
0.02584025 -0.06744504 0.02755409 -0.1792734 0.7673749 -0.6156002 
0.01682598 -0.04426318 0.03736244 0.04407163 0.03878625 -0.9981367 
-0.004360388 0.0517575 0.05433005 0.8474625 0.5289387 0.003051702 
-0.007167015 -0.06051099 -0.01527791 0.6737438 -0.649564 0.3512098 
0.02582869 -0.008690665 0.02798936 -0.3338102 -0.1855993 -0.9236716 
0.009064996 -0.005589083 -0.0187614 0.09079399 0.02231804 0.9954879 
0.02006981 0.04866705 0.01893031 -0.3529138 -0.907191 0.2205022 
0.02983396 0.02139979 0.0247396 -0.8875291 0.1942085 -0.4177747 
0.004233749 0.01914404 0.03515383 0.6457382 0.2973602 -0.7027616 
-0.009911721 0.0234396 0.00807998 0.945496 0.3079663 -0.102105 
-0.001238597 -0.04918836 0.03312699 0.5351141 0.09173215 -0.8394134 
0.03149464 0.03000409 0.02246437 -0.9210534 -0.04128405 -0.3869876 
0.03601215 0.0009057801 0.007807034 -0.9403453 -0.3385954 -0.02565954 
-0.002921215 0.07684945 0.04510953 -0.8995996 -0.09804024 0.3815966 
0.004112572 0.01237114 0.03133152 0.5498102 0.4056573 -0.7289376 
0.03304841 0.00905424 0.01143063 -0.9607295 -0.2588246 -0.09822549 
0.01821661 -0.07037846 0.01464368 0.06292444 0.951131 0.3011343 
0.0288093 0.02147454 -0.01979709 -0.9675835 0.2304851 0.0838654 
0.004136672 -0.02231406 -0.01420314 0.3102859 0.3970133 0.8635394 
0.02667084 -0.0580073 -0.02750497 0.9939665 -0.001457307 0.05042699 
-0.004882851 0.05335627 0.05927424 0.7044444 0.6711962 -0.2286388 
-0.00859024 -0.02372011 -0.00383159 0.8312022 0.2670529 0.4873809 
-0.005834943 0.02375246 0.02443455 0.856053 0.2713484 -0.4398243 
-6.25151e-05 -0.07112212 0.01911227 0.5805283 0.7577894 -0.2973667 
0.008374343 -0.02371127 -0.0146852 0.1443494 0.4019701 0.9035929 
0.02593363 0.01397953 -0.008313781 -0.9069936 0.4108031 0.0805455 
-0.008759435 -0.06581238 -0.004255684 0.9261973 0.3709227 0.02337745 
0.03767423 -0.02098013 0.02018433 -0.8817347 -0.01246293 -0.4710908 
0.00886444 -0.03819736 -0.004355718 0.1386047 0.6163715 0.772491 
-0.0083339 -0.06788098 -0.01047343 0.885244 0.3753019 -0.2743807 
-0.004996984 0.032459 -0.04665441 0.9158752 -0.3902408 0.05821005 
-0.01837132 0.06436419 0.04610202 0.4601309 0.8839074 0.08238981 
0.01740178 0.03254915 0.04441811 -0.893121 0.2253079 -0.389282 
0.0296639 0.005135877 0.0213024 -0.7599497 -0.1602029 -0.6295335 
0.003313268 0.03020207 -0.03223506 -0.9907694 -0.03541677 -0.06828125 
0.03197801 0.0215435 -0.07375364 -0.3699756 -0.7510086 -0.5077152 
-0.00516203 0.02293855 0.02521083 0.8536245 0.2364003 -0.4600743 
0.02058527 -0.05293914 -0.004144251 0.07418378 -0.06699476 0.9946883 
0.02714152 0.01824734 -0.0504305 0.5675126 -0.7696656 0.277504 
0.03204276 -0.03408997 0.03369354 -0.5256206 -0.2801705 -0.8024138 
0.02709873 -0.05786477 -0.02382169 0.9773587 0.1384061 -0.1571748 
-0.005104448 0.07800075 0.04242408 -0.5907287 -0.05245257 0.7918565 
0.0175023 0.007203277 0.0309848 -0.4102671 0.3999485 -0.8194439 
-0.007151633 0.03325621 -0.01750899 0.8380337 -0.4281252 0.3320755 
-0.01027802 0.03192908 -0.00657462 0.8733872 -0.3655819 0.3206611 
0.03658235 -0.06652834 -0.06288823 -0.9583739 -0.1731515 0.2177814 
0.03937504 -0.05557305 0.02524295 -0.8861185 0.210924 -0.4125615 
-0.01385029 0.06269576 0.05081192 0.2048182 0.9636477 -0.1683129 
0.02100625 0.02159184 0.03511333 -0.7469878 0.2145431 -0.6284734 
0.02548349 -0.01070604 0.02851851 -0.3233969 -0.195877 -0.9254459 
-0.005756531 -0.0741377 -0.02667398 0.9582566 0.2122902 -0.1636329 
-0.02300325 0.07961493 0.0388981 -0.1764818 -0.04264261 0.9831822 
-0.01668358 0.07173131 0.0733843 -0.1198395 -0.7827132 -0.5852925 
-0.005992781 -0.08533758 -0.06579778 0.9263973 0.3233025 -0.1557857 
-0.004879533 0.0739178 0.07016654 -0.519044 -0.4224597 -0.7399867 
-0.008512059 0.08380357 0.07555325 -0.7034755 0.262197 -0.6545779 
0.02594457 -0.02245803 0.03118451 -0.3806487 -0.3327823 -0.8626655 
-0.01147227 -0.008444337 0.002152837 0.9734322 -0.1428867 0.1784099 
0.03562883 -0.06421095 -0.05783312 -0.4430997 -0.8937686 0.0001257467 
0.02692404 0.01205571 -0.04915599 0.835332 0.5416605 -0.03660616 
0.03971019 -0.05132821 -0.003251247 -0.9549606 0.002098531 0.29441 
0.0273007 0.01111564 -0.05231935 0.8585238 0.5033353 -0.07582597 
0.03864296 -0.02206707 0.01794347 -0.9363055 0.03954126 -0.3487765 
-0.0009988032 -0.08871457 -0.06351574 -0.4380729 0.6367627 0.6274824 
-0.0002616312 0.01724709 -0.008698972 0.4471807 0.7248189 0.5184186 
0.0207367 0.0124257 0.03147795 -0.5729366 0.384423 -0.7237959 
-0.01235395 -0.0601886 0.004877406 0.9773277 0.2041502 -0.04754902 
0.02364387 -0.03123029 0.03538814 -0.09257 -0.3222563 -0.9420392 
0.008815229 0.007463433 -0.01844892 0.1123455 -0.09504604 0.9890074 
0.04072871 -0.040835 0.01293079 -0.9494643 -0.298314 -0.08644966 
-0.008335356 -0.03246991 0.01268617 0.9326334 0.3425514 -0.1105802 
0.004805909 -0.06629752 0.02929481 0.2302403 0.5914376 -0.7723702 
-0.001639668 0.02367396 -0.03682536 -0.1474962 0.9720672 0.1626135 
-0.003823827 0.02350127 -0.02706161 0.7089744 0.680546 0.08462787 
0.02700499 -0.05153772 -0.008581175 0.9309987 -0.07246178 0.339802 
-0.003330932 0.04458376 0.003985435 0.316196 -0.9241909 0.2128769 
0.0003354778 0.03517688 -0.07297692 -0.6320315 0.7523837 0.1192289 
0.01342628 0.02758317 0.04668187 -0.2604061 0.6315398 -0.7174278 
0.0274888 0.01229397 -0.06602746 0.8949695 0.3807183 0.1627648 
-0.001912775 0.009934067 0.02333761 0.7775552 0.1595228 -0.6074635 
0.02188439 0.008124104 -0.01549207 -0.8153203 0.4644167 0.3256867 
-0.02498107 0.08038325 0.05921727 0.6013978 -0.3186832 -0.7324123 
-0.0004119851 -0.02545312 -0.01053126 0.4724972 0.4382302 0.7644935 
-0.01614941 0.08814006 0.05703302 -0.08158319 -0.9888948 -0.04158044 
0.01713934 0.03478777 -0.01375996 0.02146266 -0.5326358 0.8459832 
0.007962208 -0.04555167 -0.00315207 -0.04827474 -0.1730558 0.9829366 
0.02873224 0.01407484 -0.002441909 -0.8331044 0.233314 0.4821699 
0.02833831 0.01986216 -0.07282569 0.387254 -0.845175 -0.3545942 
0.004606235 -0.05465506 0.03473287 0.2457413 0.2343807 -0.9400966 
-0.004043138 0.05576163 0.04621647 0.9622304 0.1537137 0.2120267 
0.03532141 -0.06172183 -0.04117231 -0.9297209 -0.3188036 0.1210766 
-0.001878821 -0.009097805 -0.01414768 0.639486 0.01041294 0.7686607 
0.001652362 0.03998203 -0.07383302 -0.983712 -0.147776 -0.04893925 
0.03521698 0.0005232894 0.01393688 -0.9063079 -0.3154095 -0.2804556 
0.02724512 0.01206532 -0.04679286 0.5836834 0.7737027 -0.1289618 
0.03170729 0.03277672 -0.01109729 -0.8335736 -0.4353091 0.3336225 
-0.004842252 -0.02470409 0.02293194 0.7243134 0.0008968248 -0.6889058 
0.02631568 0.02026912 -0.07518712 0.7675054 -0.4903471 0.1776942 
0.0353066 0.02618833 0.004536902 -0.992116 0.1124332 -0.05502766 
-0.01099465 0.03166651 0.003811782 0.9702208 -0.212129 -0.1024461 
0.04028339 -0.05233986 0.0007022526 -0.961215 0.08685257 0.2540649 
0.03478535 -0.065851 0.004573627 -0.8265854 0.5325365 0.1723488 
-0.001469982 0.05033293 0.06000269 0.6488973 0.6651545 -0.3690027 
0.01292238 0.05428881 0.05997176 -0.8915176 -0.1135022 -0.4383573 
-0.01125588 -0.01855258 0.01307901 0.9516286 0.02973811 -0.3054727 
-0.00899227 0.02398326 0.01642645 0.9585021 0.1797531 -0.2209417 
-0.00474719 -0.03105166 0.02655749 0.8235095 -0.4384215 -0.356454 
0.02780726 0.005348458 -0.00808833 -0.6822442 -0.3669037 0.6323094 
0.03531478 -0.0264176 0.02438993 -0.8818485 -0.1774441 -0.4320453 
-0.003835556 0.02329359 -0.02512221 0.7639993 0.6232083 0.08161977 
-0.01042988 0.02801534 -0.008305435 0.9343472 0.006828392 0.3550442 
0.03688848 -0.05165435 0.0303966 -0.7215643 0.1593991 -0.6725451 
0.03215452 0.01455148 0.006253986 -0.9482335 0.2276358 0.2200926 
-0.005176382 -0.07840422 -0.03826104 0.7467406 -0.5639076 0.3406641 
-0.005920427 -0.06676555 0.018334 0.6556753 0.6860099 -0.3142894 
0.0310804 -0.06780478 -0.04343924 0.8329023 0.5383576 -0.09482986 
0.01397989 0.0590836 0.0398835 -0.500616 -0.8308741 0.2405617 
0.001605981 0.04882882 0.02376569 0.8935412 -0.3738308 0.2485084 
0.03860685 -0.01343802 0.0166695 -0.9287146 -0.1549137 -0.3365462 
0.00309212 0.05322586 0.02471974 0.6364012 -0.6032028 0.4745275 
-0.002165982 -0.07034561 0.01210101 0.6894258 0.7114004 -0.01036834 
0.03160699 -0.06117609 -0.006730365 -0.02780021 0.8746589 0.4795592 
-0.01923765 0.08524852 0.06115932 0.5532651 -0.4628458 -0.6916283 
-0.008523145 -0.0533592 -0.005086869 0.6155828 -0.3215619 0.7189105 
0.03403593 -0.04750969 0.03346505 -0.5606284 0.1002329 -0.8213485 
-0.01685365 0.06536093 0.05681702 0.3592746 0.892942 -0.2456367 
0.03519671 0.03125086 0.0008474416 -0.9754624 -0.2125774 0.03639922 
0.03457469 0.003396067 0.00211368 -0.9201726 -0.3402229 0.1932924 
-0.003226195 -0.06812666 0.02023483 0.5837548 0.7301201 -0.3549002 
0.001178439 -0.05902499 -0.009768979 -0.1764407 0.8640695 -0.4674959 
0.00972358 0.01563189 0.03710615 0.1517669 0.4197565 -0.8925121 
-0.004297059 0.05567729 0.06477593 0.5092168 0.6858015 -0.5193235 
-0.006263438 -0.0712451 -0.01223028 0.6030101 0.7518938 -0.2659939 
0.01666554 0.03756614 -0.0116719 0.01813566 -0.65048 0.7589366 
-0.007680604 0.08597943 0.07164668 0.2927584 -0.9344038 0.01091391 
0.03043064 0.01402481 -0.04344766 -0.8337689 0.4969161 -0.2301339 
0.01449039 0.03986721 -0.008946753 0.07320255 -0.8210841 0.5659131 
0.01028382 0.06286167 0.06077937 -0.8472071 -0.3858855 -0.3650536 
0.005395308 -0.07253079 0.02182025 0.08626305 0.9068286 -0.4114249 
-0.00398413 -0.06483346 0.02410556 0.6406953 0.5602019 -0.5245042 
-0.006356873 -0.08455889 -0.05986788 0.9602861 -0.2492921 0.05766314 
-0.01082475 -0.04772006 0.01849484 0.983373 -0.1773054 0.0237432 
-0.004208437 0.03706573 -0.01139119 0.3991557 -0.9032364 0.1509357 
-0.007751795 -0.05162138 -0.004690212 0.3647954 -0.4391257 0.8156207 
0.02985373 0.00727579 -0.05781776 0.09681951 0.9615237 -0.2207818 
0.02306768 0.04233671 -0.00155415 -0.2132066 -0.7922501 0.5710567 
0.03295845 0.0351706 -0.0007671078 -0.7038935 -0.6866494 0.1809548 
-0.008446686 -0.03244264 0.01073522 0.9209331 0.3890945 0.01602255 
0.02877102 -0.002437844 0.02468158 -0.5938841 -0.2644264 -0.7595768 
0.02646545 0.02817152 -0.02567328 0.08393687 -0.9465026 0.2990517 
0.0128979 -0.01778771 -0.01687224 -0.279492 0.2777538 0.9188557 
0.03366977 0.01369603 -0.06455579 -0.9742043 -0.209261 -0.04706945 
-0.004367922 0.05562555 0.04822091 0.9405018 0.3111707 0.1360354 
0.004042091 -0.04694446 -0.003772966 -0.07693557 -0.2523887 0.964451 
0.006022207 0.02233144 -0.01768415 -0.1765853 -0.01930211 0.9838724 
-0.006422654 0.01543231 0.01440396 0.9521251 0.268955 -0.1206878 
-0.005030573 -0.08714825 -0.06751117 0.6000971 0.7862606 -0.1211383 
0.01628374 -0.03128936 0.0353526 0.04892095 -0.3075389 -0.950157 
0.03371083 0.03184687 -0.004946792 -0.8582962 -0.3857544 0.3373089 
-0.004981113 -0.08218508 -0.06330404 0.6395568 -0.7444921 -0.1095705 
-0.004851121 -0.07246149 -0.01268992 0.5426189 0.7905536 -0.2828295 
0.0005457028 -0.08107268 -0.04300593 -0.851303 -0.4622973 0.2401517 
-0.002829625 0.04048157 -0.0676249 0.02602835 -0.7678396 -0.6355119 
-0.0007365922 -0.06270086 -0.01834117 -0.5493825 -0.6533519 0.5201575 
0.02090356 0.04422939 0.03746031 -0.87103 0.1407077 -0.4697579 
-0.008875834 -0.004815587 -0.004044609 0.8910192 -0.2278719 0.3925792 
0.04142487 -0.04909406 0.01988422 -0.9911233 -0.1015068 -0.07273448 
-0.02524859 0.08749371 0.04052007 -0.6186961 -0.6783056 0.3730951 
-0.003173888 0.03551616 -0.01855109 0.1062648 -0.979785 0.15672 
-0.009771433 0.0321927 -0.007921811 0.9522158 -0.229858 0.1934022 
0.03292972 0.03040422 0.01809878 -0.9690518 -0.03123537 -0.2440728 
0.01658221 -0.04578383 -0.002816906 0.0833928 -0.1152937 0.9896885 
0.02856619 -0.05815238 -0.0332447 0.778024 -0.4472421 0.4323941 
-0.001204368 0.04937454 0.05874581 0.6683668 0.6546797 -0.35277 
0.02405704 0.04622778 0.022476 -0.6218338 -0.7687132 -0.1467286 
-0.003019152 -0.004677546 0.02214246 0.6373937 -0.1199727 -0.7609496 
-0.005157664 0.02144383 -0.01138206 0.5042774 0.6892838 0.5141721 
-0.001905213 0.01400127 -0.004512124 0.8563457 0.01722337 0.5027617 
0.01374525 0.06002943 0.04353029 -0.6341556 -0.7674681 0.09182983 
-0.003663577 -0.06593993 0.02318141 0.6253022 0.6230251 -0.4695523 
0.007141761 -0.07353239 0.01896562 -0.08488481 0.9702026 -0.2262661 
0.02858394 0.02055051 0.0268276 -0.8553234 0.22259 -0.4675894 
0.02334137 -0.06782547 0.007679943 0.1680167 0.8537546 0.4926407 
0.01917145 -0.07099457 0.0168245 0.0678425 0.9838243 0.1652004 
0.003591768 -0.01721937 0.02815026 0.4272556 -0.1560132 -0.8903544 
0.03529748 -0.001594137 0.01575406 -0.8759059 -0.3149888 -0.3652314 
0.0133341 0.01577379 0.03734265 0.007760755 0.5776481 -0.8159271 
0.006577808 -0.06373902 8.413987e-05 -0.2180824 0.6100261 0.761442 
0.02660096 -0.06036042 0.03275054 -0.2121346 0.4472356 -0.8686136 
0.01516762 0.0345414 0.05081604 -0.8136079 0.342142 -0.4606844 
0.02771494 -0.06930859 0.008253112 0.2239399 0.8665491 0.4448831 
0.01371593 -0.05138212 0.03656028 0.04639884 0.1978955 -0.9789385 
0.03590566 -0.05054256 -0.0219848 -0.6222348 -0.5476145 0.5558969 
0.01300021 0.02135241 -0.01769404 0.02890423 -0.08198212 0.9959947 
0.0002345238 0.02355916 -0.02747643 -0.5410809 0.8223104 0.1510687 
-0.01521553 0.06936151 0.03923005 0.2364017 0.1953834 0.9514913 
0.01891053 0.05169181 0.04256198 -0.9301378 -0.1782037 -0.3188486 
-0.01080804 -0.05168924 -0.002273685 0.8341187 -0.1727717 0.5230677 
-0.004513957 0.07975579 0.04592581 -0.7526343 -0.6533623 0.07789234 
0.02616332 0.01319839 -0.04247933 0.5422327 0.8363274 -0.0264814 
0.002969134 0.06449179 0.06899014 -0.5859306 -0.2637627 -0.7655416 
0.00679686 0.001290611 -0.01855822 0.1839337 -0.05124853 0.9805915 
-0.007638168 0.04182011 -0.07341355 0.8109508 -0.298543 -0.5006838 
0.003885217 0.06105943 0.03589394 -0.0648442 -0.8330518 0.5492446 
-0.006321079 -0.06821826 0.007857238 0.430644 0.8996506 0.06301577 
0.02907925 -0.06060542 -0.06989988 0.7570385 -0.5831903 -0.1928295 
-0.001315521 0.04568307 0.02604764 0.8994129 -0.3994877 0.1620339 
0.03312062 0.01754186 0.01461603 -0.9688269 0.152756 -0.1932108 
-0.0008982751 -0.06392583 0.02804038 0.5456758 0.497483 -0.6741782 
0.03166723 0.04199878 0.009389523 -0.8203306 -0.5667579 0.06701087 
0.02558965 -0.001342975 -0.01312081 -0.6146156 -0.2144337 0.7589425 
0.01255683 -0.00918488 -0.01847273 -0.1990031 0.07249696 0.9772196 
0.03452828 -0.04309436 0.03340476 -0.6157911 0.002254961 -0.7873456 
-0.008949723 -0.02673764 -0.0009517928 0.8545987 0.3714846 0.3622381 
0.01708033 0.03123422 0.04434571 -0.8830721 0.2352092 -0.4060073 
0.03280494 0.03276108 -0.006045328 -0.8459749 -0.4367471 0.297474 
-0.005335427 -0.06291207 0.02425106 0.7067659 0.4644139 -0.5333619 
0.03336865 -0.06684636 -0.03394152 -0.5448573 0.8122866 -0.1751963 
0.02825357 -0.05757819 -0.01838635 0.8348912 -0.4642419 -0.2309676 
0.0009246256 -0.06315638 -0.01644326 -0.8908466 0.04728828 -0.1374386 
-0.003434056 -0.03996629 -0.0006605068 0.3427355 -0.2025934 0.9163789 
-0.003071175 0.05752995 0.0437623 0.9417219 0.01632182 0.3186398 
0.03145029 0.01351694 -0.07557715 -0.1645944 0.2202068 0.9176205 
0.03051177 -0.06669828 -0.03909553 0.7785919 0.6195439 -0.02066374 
0.004800063 0.02409834 0.03728924 0.754001 0.2416164 -0.6084793 
-0.002053447 0.07546768 0.04745271 -0.9547153 -0.1238316 0.2577904 
0.01216188 0.0275619 0.04692299 -0.09698975 0.6602036 -0.7441863 
0.001464327 0.07032779 0.06715638 -0.6293233 -0.4875642 -0.6031199 
0.01622447 -0.007305573 0.02898707 0.0537061 -0.1043859 -0.9930818 
-0.005226475 -0.04558724 0.03005578 0.7293479 0.05285988 -0.6820397 
-0.007083436 0.0654951 0.03941831 0.1679189 0.4621214 0.8639718 
0.02516161 0.02302095 0.03120313 -0.6533828 -0.08014046 -0.7527156 
0.04158679 -0.04468707 0.01443045 -0.9758974 -0.1969198 -0.09251031 
0.00189749 -0.06772289 -0.01723198 -0.8546332 -0.4421982 -0.2551238 
0.03231693 -0.02833316 0.03033454 -0.6079237 -0.4544967 -0.6507844 
0.03213741 0.04113103 0.008533492 -0.8582955 -0.5021644 0.09553711 
0.02741038 -0.04467649 -0.005146516 0.6556242 0.03177534 0.6924447 
0.02433662 -0.03847028 -0.005350983 0.1671278 0.5548321 0.814092 
0.02018269 0.05075051 0.02921398 -0.7375203 -0.6620999 0.1303027 
-0.002978123 0.04394321 0.001095549 0.2749476 -0.9181291 0.280004 
-0.004428166 -0.02510907 -0.007894518 0.5703375 0.3808556 0.7271289 
0.036963 -0.07007179 -0.0599866 -0.8623745 0.461292 0.193042 
0.02626936 0.01472957 -0.05380659 0.9955964 -0.02413749 0.0539682 
-0.003000392 0.01424099 -0.002481452 0.8773828 0.04763242 0.4711076 
0.02176466 -0.02367865 0.03271546 -0.1049914 -0.3211536 -0.9410342 
-0.02953353 0.07484326 0.05022431 0.7940738 0.6020882 -0.04311816 
0.0003140515 -0.07232337 0.016296 0.5644528 0.7950433 -0.2175824 
-0.005819433 0.03665049 -0.01049592 0.3433457 -0.924735 0.1634195 
0.00285629 -0.07647195 -0.03140466 -0.9380022 -0.2351466 0.230819 
0.02313908 0.01641561 -0.03015835 0.7713212 0.628781 -0.07373556 
0.0005176354 0.0410309 0.04400144 0.9458622 0.3176763 -0.05976384 
0.02010258 0.008118315 0.02986877 -0.5342909 0.3222549 -0.7810614 
0.03962157 -0.03896646 0.02501525 -0.9798036 -0.1719006 -0.08669675 
0.03609411 -0.06714194 -0.06746323 -0.6838447 0.7088211 -0.1602142 
0.002876655 -0.02614983 0.03069361 0.3989051 -0.4047071 -0.8227233 
-0.008158515 -0.03171903 0.005577309 0.8500788 0.5044196 0.1511737 
0.03656305 -0.00597252 0.01649461 -0.8740654 -0.3154439 -0.3693739 
-0.009999592 0.02902827 -0.009095616 0.8972908 -0.1074292 0.4258987 
-0.002796687 -0.06943291 0.006696139 0.6773821 0.7176546 0.001202641 
0.03939923 -0.0593463 0.005672479 -0.7454871 0.5995364 0.2860967 
-0.0169045 0.06357368 0.04678314 0.4331215 0.8986292 0.0672329 
-0.003508946 -0.08967683 -0.05439408 0.7058306 0.5962949 -0.3521762 
0.0264192 0.01326274 -0.05357543 0.9739871 0.2217743 -0.006966738 
0.03180476 0.004117035 -0.004174495 -0.7798474 -0.3731273 0.5018843 
0.02858772 -0.06166901 -0.03486715 0.9760682 0.06387632 0.2046475 
0.03349753 -0.05878879 -0.01240518 -0.445916 0.8872306 -0.1148347 
-0.007608299 0.03410602 -0.0149058 0.7760988 -0.5669107 0.2726705 
-0.00581931 0.08167975 0.05004314 -0.7294949 -0.6832604 0.02947711 
-0.00329336 -0.0423103 0.03191823 0.6297456 -0.02895476 -0.7758304 
0.001524675 -0.08532096 -0.07333928 -0.9168304 0.2795488 0.2728619 
-0.006721412 -0.05013476 -0.004443569 0.1986453 -0.3958873 0.8959452 
0.004766502 0.04540973 0.005706054 -0.1566811 -0.9433126 0.2924406 
-0.004071035 -0.081318 -0.02443713 0.947984 0.2545811 -0.1420922 
0.002410094 0.008194922 -0.01393575 0.8126437 -0.2824776 0.5094944 
-0.004377561 0.03352141 -0.04880741 0.8566546 -0.5088024 0.01179023 
-1.565783e-05 -0.05984389 -0.004274483 -0.2528566 0.2576571 0.9270601 
-0.00621315 0.02932503 -0.03627248 0.9769541 -0.05345839 -0.1806345 
0.02504299 0.008973408 -0.009668129 -0.8443308 -0.1979931 0.4970863 
-0.01225401 -0.01151888 0.005311268 0.9935009 -0.09725817 0.05408581 
0.01512711 -0.01220672 -0.01779233 -0.08841923 0.1424763 0.9858038 
0.01198213 0.05912419 0.05995776 -0.8885934 -0.2491741 -0.3844891 
-0.008060686 -0.06943505 -0.020943 0.9389524 0.2659654 0.2086384 
-0.008998271 0.03786875 0.01590326 0.941627 -0.2522472 -0.2189694 
0.03711396 -0.06006946 0.02595255 -0.7009231 0.4912179 -0.515976 
0.02692667 0.0266813 -0.03107431 0.1029837 -0.9539637 0.2725027 
0.02885738 -0.05917804 -0.03495694 0.8748904 -0.3411692 0.3315166 
-0.008114617 -0.03227485 0.01430101 0.9287314 0.3011205 -0.2155893 
0.02798418 -0.02910802 -0.006663825 -0.5830227 0.3486515 0.7334366 
-0.002652974 0.03799163 0.02682724 0.6656579 -0.4563372 -0.5900165 
0.03437222 0.02689979 -0.00633682 -0.9368126 -0.06737443 0.3410324 
0.0253602 0.01334758 -0.01336214 -0.8713706 0.4894115 0.03387292 
0.0196555 0.01397915 -0.01850123 0.1103933 0.03837387 0.9930698 
0.0003903891 0.03382863 -0.02419735 -0.6456931 -0.7620485 0.001050626 
0.003838869 0.03924188 -0.01002602 -0.1146156 -0.8105345 0.5739729 
0.01257619 0.05066672 0.0200645 -0.1655851 -0.8842886 0.4364067 
0.01188696 -0.07245523 0.01908582 -0.4008579 0.9024 -0.1554861 
0.01178198 -0.05900081 0.03430687 0.05611268 0.3660011 -0.9284354 
-0.002087256 0.01123628 0.02347974 0.8080198 0.22006 -0.5446789 
0.02639659 0.01177953 -0.05847776 0.9821737 0.1528132 -0.08783568 
0.03247582 0.01213168 -0.05341132 -0.9211146 0.2173252 -0.3171371 
0.007881628 0.05224255 0.06613584 -0.4091122 0.2682763 -0.8705255 
0.01566043 -0.06197974 0.0008748575 0.0001564288 0.739538 0.6723056 
0.007412894 0.04630964 0.009618137 -0.09845527 -0.9386113 0.3276852 
0.005621722 0.0510781 0.01922502 0.05155431 -0.8631582 0.4739023 
0.03156653 0.02023882 0.0203276 -0.9127322 0.1332527 -0.3861631 
0.02411414 0.04686914 0.01828142 -0.3825733 -0.9170935 -0.1088806 
0.03976237 -0.04414134 0.02658533 -0.934069 -0.03448425 -0.3543909 
-0.008492767 0.02130179 -0.005945324 0.8271337 0.5355672 0.169641 
0.001514684 0.01683659 0.03169458 0.6034269 0.2999868 -0.7385584 
0.01658912 0.02586984 0.04240693 -0.7626702 0.3092802 -0.5665904 
0.002038628 -0.0608404 0.03150388 0.3702935 0.4083138 -0.8342769 
0.02846458 -0.06031992 -0.07480065 0.7241244 -0.2501113 0.5879282 
-0.001096901 0.04548815 0.01718396 0.4903624 -0.8645445 -0.1075052 
-0.01297571 0.06402984 0.0659093 0.5335975 0.7800504 -0.3047932 
-0.01037061 -0.001600446 0.005199917 0.9635996 -0.2613993 0.05420363 
0.004035024 0.04412616 0.001169118 -0.1959493 -0.929881 0.3112693 
0.02504563 0.0381996 -0.006010079 -0.5247176 -0.7900185 0.2958239 
0.001529585 0.03408092 -0.0350238 -0.4235826 -0.8924341 -0.1433072 
0.03678138 -0.00336079 0.001191779 -0.9256002 -0.3020718 0.2278168 
-0.0005465546 0.03204094 -0.06462093 -0.359226 0.5631593 0.7412381 
0.02296234 -0.05718632 0.0349024 -0.1360805 0.3197504 -0.9374011 
0.03555152 -0.06277788 -0.06613571 -0.6253629 -0.5730137 -0.5274789 
-0.02125532 0.0875059 0.04942323 0.04238551 -0.978935 -0.1954755 
0.01598764 0.04241502 -0.004466932 0.1294383 -0.9211461 0.3669891 
0.007804712 -0.07215314 0.001765835 -0.5430675 0.7732661 0.3226378 
-0.007745774 -0.03503077 0.01269619 0.9955406 0.0202724 0.04508754 
-0.008246717 0.03898 0.01720414 0.8679395 -0.3958654 -0.2979648 
0.03323553 -0.04698768 -0.01906649 -0.05387905 -0.8486011 0.5239253 
-0.005954141 -0.003950425 -0.008983932 0.7965071 -0.225032 0.5610337 
-0.01039559 -0.01284388 -0.003252651 0.9297953 -0.02395814 0.3672249 
0.03473729 -0.05366087 -0.02770022 -0.5407348 -0.7270502 0.4189484 
0.01458179 0.01095242 0.03427586 -0.0596842 0.524211 -0.8463279 
-0.01151646 -0.04458316 0.008179977 0.9490616 -0.2938267 -0.1106789 
-0.007375781 0.04101904 -0.07139455 0.8566982 -0.4859184 -0.1429436 
-0.001092877 -0.02047332 -0.01237052 0.5163273 0.2813075 0.8086959 
0.02828946 0.04524481 0.01563892 -0.5822626 -0.7995638 -0.142443 
-0.001495296 0.04489967 0.02500846 0.9199935 -0.3796591 0.09612286 
0.007363442 0.007304388 -0.01827492 0.1744875 -0.05986325 0.9826492 
-0.004664221 0.03711175 -0.009935283 0.3326029 -0.9295725 0.1378457 
-0.001186939 -0.02172939 -0.011834 0.5103648 0.3189357 0.7982078 
-0.02040317 0.06898764 0.06378386 0.6677052 0.4700005 -0.5769656 
0.01940425 0.02520968 -0.02006736 0.8958363 -0.3329648 0.2912208 
-0.006430454 0.01603681 0.0157262 0.9069677 0.4004413 -0.1299975 
0.02728136 -0.05409642 -0.02539095 0.909753 -0.3708944 0.1673371 
0.03116208 0.01183428 -0.07565314 -0.1560627 0.3782609 0.8859531 
-0.001437756 -0.08571363 -0.03834012 -0.2201639 0.9387871 -0.251975 
0.02715955 0.02506882 -0.03588519 0.129619 -0.9194717 0.3701396 
-0.0002060134 -0.07047553 0.02041754 0.593037 0.7457703 -0.3033673 
0.03440065 0.03364258 0.001188855 -0.8898391 -0.4514142 0.05788822 
0.02989578 0.01300306 -0.0001593731 -0.9001135 -0.1882565 0.3864131 
0.009525326 -0.01744924 -0.01710768 0.06911728 0.2801413 0.9573147 
0.0299569 0.0260963 -0.02222751 -0.9722443 -0.1630238 0.1663938 
0.0093122 -0.02689546 0.03318368 0.1833097 -0.3244326 -0.9272032 
0.03310213 0.03719196 0.004917676 -0.9078112 -0.3230592 0.2665037 
-0.0004404061 -0.08744007 -0.07092582 -0.4240195 0.8551506 -0.2855868 
-0.004428389 0.07217959 0.07076421 -0.4553945 -0.334597 -0.8214234 
-0.007859534 -0.08104726 -0.0734089 0.9068975 -0.3163129 -0.2486338 
-0.002908755 0.042732 -0.002205851 0.323969 -0.8583324 0.3900841 
0.04035386 -0.03861649 0.009237591 -0.8777401 -0.4558219 -0.1394409 
0.006214361 0.0004192896 0.02736323 0.4682117 0.06842709 -0.8802823 
0.007841462 0.0598486 0.03505073 -0.2667465 -0.8632778 0.42781 
0.009327616 -0.02562377 0.03275158 0.2328053 -0.3274988 -0.9152324 
-0.004547985 0.03225059 -0.06509487 0.49997 0.5458407 0.6511567 
0.03932176 -0.06108774 0.01072456 -0.7895931 0.6024336 0.1160422 
-0.006107217 -0.08227679 -0.03657111 0.9402834 0.328629 0.01829934 
-0.02849721 0.07964037 0.03746927 -0.1043471 0.5557227 0.816097 
0.001240646 -0.07266992 0.01711517 0.4838857 0.8410478 -0.2381492 
-0.005921376 0.03344439 -0.02021542 0.8001967 -0.4769301 0.3573474 
0.03361802 -0.05708277 -0.03478441 -0.2563191 -0.8408686 0.4519601 
0.03476114 -0.0472487 -0.01877787 -0.2782809 -0.7716413 0.5703294 
0.008895412 -0.06965144 0.002637068 -0.6567649 -0.03291345 0.7012234 
0.01063951 0.002055087 0.02916943 0.09981515 0.3386248 -0.9349705 
0.02097477 0.02835364 -0.01844628 0.6391398 -0.6757305 0.3626937 
0.03268973 -0.04877722 -0.02162548 -0.1383903 -0.795576 0.5836841 
0.002969194 -0.07993298 -0.02465979 -0.9960885 0.07920718 -0.03035373 
-0.01204354 -0.06067661 0.007024614 0.9606904 0.2437939 -0.1293734 
-0.008725496 -0.02785097 -0.0002539521 0.8515428 0.3953828 0.3442013 
-0.0003406652 -0.0587799 -0.005331194 -0.2408318 0.6863883 0.6844144 
0.02988254 0.01929235 -0.009054251 -0.5275828 0.7315945 0.4297606 
0.0008694019 0.04663971 0.01862214 0.6191472 -0.7837163 0.0294765 
-0.004232947 -0.08091647 -0.02951215 0.9494282 0.1198136 -0.193872 
0.0417341 -0.04982473 0.01300986 -0.9936276 0.1015323 0.007599652 
0.003197382 0.03771906 0.04831588 0.7544658 0.527976 -0.3891612 
0.0209396 -0.02701143 0.03402881 -0.06624914 -0.3549102 -0.9322758 
-0.001856541 -0.03204012 -0.004846278 0.4518563 0.599557 0.660491 
0.0368735 -0.06396934 0.01881827 -0.6914285 0.7112888 -0.1240234 
0.03352013 0.02345998 -0.008015997 -0.8916639 0.2069476 0.3998909 
-0.007354432 -0.03805844 0.02688716 0.8514185 -0.2056444 -0.4819193 
0.03142862 0.03520929 -0.006492297 -0.8172049 -0.5697454 0.08298618 
0.03923004 -0.01047432 0.01205632 -0.9683813 -0.2053375 -0.1387485 
0.01862351 0.03870535 0.04407852 -0.9352399 0.0899244 -0.3422334 
0.01992705 -0.05984651 0.03403085 -0.03835546 0.4339849 -0.8999504 
0.01911213 -0.03726573 0.03698997 0.0426411 -0.1550314 -0.9866375 
-0.001058747 -0.06710053 -0.02322101 -0.4982649 -0.6126332 0.6120377 
-0.002129451 -0.07587396 -0.03545447 -0.05731692 -0.8691057 0.4905921 
-0.006608327 0.01453194 0.01001801 0.9988329 0.04396916 0.01080628 
0.01479625 0.03108579 0.04877491 -0.720589 0.4453539 -0.5289229 
0.03087733 0.01747173 -0.05299754 -0.6305931 -0.7648216 0.09605916 
-0.02330789 0.07319051 0.04012736 0.2223223 0.3982794 0.88955 
0.03126743 0.0123748 0.003036879 -0.9282289 -0.2668978 0.2582193 
0.04146219 -0.04881959 0.01794599 -0.9890814 -0.1378732 -0.0463888 
0.01250873 -0.05980071 -0.001642071 -0.2205085 0.6110811 0.7601632 
0.01849982 0.04394436 0.04531556 -0.95558 0.0006778757 -0.2942179 
0.0139955 0.01696155 0.03819344 -0.05420806 0.5843233 -0.8087512 
0.01396403 -0.06165332 0.0004093246 -0.1583754 0.6912756 0.7045805 
0.02903365 0.009777118 0.02172239 -0.8091469 0.05947256 -0.5839357 
-0.03413549 0.08872545 0.04567117 0.09489156 -0.7622138 -0.6368608 
0.006926995 -0.03606015 -0.005642948 0.2023401 0.6285057 0.7507041 
0.02129173 -0.07117576 0.01692596 0.1069009 0.9866708 0.1210352 
0.008109814 -0.07314363 0.02003374 -0.09731577 0.9579614 -0.2680379 
0.02730899 -0.06395557 -0.0002090536 0.3143074 0.778605 0.5427772 
0.001916864 0.004965204 0.02540714 0.5861926 0.2615651 -0.7667041 
0.03743581 -0.06202138 0.02303074 -0.7265564 0.5973497 -0.3381537 
-0.002569678 0.07692156 0.05645075 -0.7925775 -0.6046343 -0.07806922 
-0.002999299 -0.07983691 -0.06883594 -0.106683 -0.873952 -0.4692368 
-0.003644038 -0.07215893 -0.005231045 0.3868704 0.9177366 0.07783285 
-0.00812589 -0.03615354 0.01453502 0.9562643 -0.2757024 0.09320872 
0.03618183 -0.009650793 0.01973244 -0.8203915 -0.2665626 -0.5049183 
0.02969239 0.03075201 -0.0167198 -0.6476545 -0.5750942 0.4951345 
0.001969978 0.05686514 0.06870762 0.09195274 0.432656 -0.8959901 
-0.006037073 -0.08713182 -0.055756 0.8191166 0.434034 -0.3557827 
0.01940626 -0.06726088 0.00781776 0.08899397 0.8508999 0.5173305 
0.02017357 -0.0397181 -0.003907553 0.1058874 0.5144749 0.8493865 
0.008970058 0.06650648 0.05733522 -0.7758921 -0.6288307 -0.03701519 
-0.01788661 0.06897352 0.06929834 0.8478253 -0.4507103 -0.2678384 
0.03588009 0.0005700084 0.01085866 -0.9334052 -0.3326414 -0.1343225 
0.002439452 -0.04001023 0.03510961 0.3711165 -0.07789443 -0.9249954 
0.02072361 -0.06987042 0.02522545 -0.03127277 0.9076202 -0.4179836 
0.002698723 0.03885449 0.0488535 0.7692266 0.5261662 -0.361575 
0.01228388 0.04782749 0.01365001 -0.04087184 -0.9303814 0.3641233 
-0.01067381 0.06038687 0.06099039 0.7986938 0.6012244 -0.001029449 
-0.0055829 0.00787942 0.01685513 0.9137177 -0.1076289 -0.3900685 
0.02992754 -0.02433158 -0.007489044 -0.6819017 0.332523 0.6511943 
-0.01270572 0.08642875 0.06080277 -0.4662349 -0.7247608 -0.5018746 
-0.001006332 0.04470974 0.03605784 0.8783104 0.4295594 -0.209019 
0.006556557 0.007249728 0.03053509 0.6146414 0.4230438 -0.6650264 
0.004669609 0.02071825 0.03607755 0.6179183 0.2455683 -0.7468011 
-0.007314993 0.02692876 -0.01481982 0.6853061 0.6934742 0.2168811 
0.0178481 -0.00157874 -0.01777201 -0.290518 -0.02062041 0.956498 
-0.028369 0.07471999 0.04089034 0.3701683 0.6052141 0.6928037 
0.01428431 -0.0009723955 -0.01853615 -0.1520049 -0.02535916 0.9879622 
0.006150763 -0.06921348 -0.002360975 -0.8242074 -0.3114472 0.3928421 
-0.006922122 0.0177196 0.000439305 0.7911269 0.6030414 0.09790032 
0.001937028 0.03311356 -0.06229444 -0.9646844 0.1651378 0.1869537 
-0.007307986 0.01866729 -0.002396634 0.7817306 0.6101906 0.1273555 
0.03321245 -0.06977546 -0.04654019 0.008612916 0.9142901 -0.2455604 
0.002444658 -0.0689472 -0.01648987 -0.8391075 -0.4734328 -0.2521737 
0.01578754 0.0367974 -0.0122983 0.006845898 -0.6165419 0.7872297 
0.009767072 0.05686542 0.03041362 -0.2406452 -0.8554307 0.4579785 
-0.02524594 0.0696113 0.05246388 0.674762 0.6997678 0.2207628 
0.004222052 0.06744519 0.06641693 -0.6561229 -0.4217317 -0.625419 
0.03057478 0.04343194 0.01018193 -0.7288609 -0.682484 0.05255199 
0.03475082 -0.07093574 -0.05284011 -0.7202789 0.6306946 -0.2470458 
0.005711102 0.03684598 0.05209211 0.796988 0.5045124 -0.3311648 
