ply
format ascii 1.0
comment VCGLIB generated
element vertex 1461
property float x
property float y
property float z
element face 0
property list uchar int vertex_indices
property list uchar float texcoord
property uchar red
property uchar green
property uchar blue
property uchar alpha
end_header
0.2851377 0.5074652 -0.4088263 
-0.3301952 -0.2245678 0.7630622 
-0.09121435 -0.486672 0.2962711 
0.1653952 0.2375657 0.3906515 
-0.1631971 0.1158285 -0.4255991 
0.03286086 0.4927211 0.05561119 
0.3035734 -0.04139622 0.8077084 
-0.3569647 -0.1406947 0.6078384 
0.353236 -0.2736464 0.5671903 
0.3763944 -0.2510026 0.0224476 
-0.3612877 -0.4098471 -0.07192174 
0.1502919 0.1939114 0.5576662 
0.1324057 0.7695046 -0.1808252 
0.2804917 -0.6678904 0.7197608 
0.1756947 -0.4946108 -0.1050702 
-0.1719831 -0.641201 0.1497096 
-0.04484056 -0.3080484 -0.1106776 
-0.05330142 0.7500852 -0.4544543 
0.2736112 0.4456508 -0.145476 
-0.2882918 -0.6393351 0.7065829 
0.319664 0.644316 -0.3208994 
0.07847597 0.3837364 0.03684604 
-0.301123 -0.3126062 -0.1086842 
0.2411539 -0.4346358 0.4590172 
0.1892336 -0.626989 0.9207345 
-0.3414313 -0.476718 0.7726536 
0.08337102 0.2816733 0.3578443 
-0.02394722 0.1117515 -0.5010491 
0.2863328 -0.01862971 0.8256757 
-0.3746493 -0.4704019 0.09954108 
-0.1500133 -0.4694828 0.5580566 
-0.2236843 0.1784485 0.4017103 
0.1691502 0.2032213 -0.621021 
0.287632 0.1391815 0.1097955 
-0.1474997 -0.4343369 0.9207495 
0.1433856 -0.5609379 0.1418526 
-0.365064 -0.1011411 0.4360237 
0.2451517 0.6213473 -0.1247236 
0.4521106 0.707557 -0.1648192 
-0.2920143 0.09054622 0.03696673 
-0.1192404 0.8808381 -0.2321334 
0.1434765 -0.596722 0.6679814 
0.3294439 0.01385141 0.4333602 
0.2958904 -0.0659244 0.8346216 
0.1711785 0.0154135 0.9198422 
-0.3549989 -0.2105727 0.5928563 
0.247859 -0.6238121 0.9137142 
-0.1942415 0.1375383 0.7622861 
0.3031113 -0.631426 0.7245035 
0.08917829 -0.5447486 0.8755674 
-0.4068799 0.7140677 -0.2991426 
-0.1282824 -0.4643759 0.5981332 
0.3191447 -0.6175152 0.7662412 
-0.3340905 -0.1683809 0.7516196 
-0.1883051 -0.3970163 -0.1087752 
0.1128299 -0.5161783 0.4245586 
0.3525148 -0.1945732 0.6293329 
-0.3609182 -0.1068848 0.5030522 
-0.3834098 -0.4026417 -0.002271693 
0.3593181 -0.5275206 0.1187378 
-0.1518906 -0.4926354 0.4986434 
-0.2980542 0.09617237 0.0614455 
0.01590292 0.7296327 -0.07226305 
0.3135532 -0.6033328 0.1523741 
-0.305724 0.675405 -0.1444757 
0.2617864 -0.7174007 0.08250178 
0.1476035 -0.4534922 0.1625357 
0.2855024 0.5742481 -0.257471 
0.2528597 -0.6372131 -0.1038391 
0.1110368 0.6493655 -0.4975829 
-0.1591186 0.2338388 0.4058858 
-0.2966235 0.1250975 0.1178233 
0.2394991 -0.4268533 0.2881212 
0.04284967 -0.4749622 0.6228526 
-0.2823886 0.3615111 -0.1836839 
0.0180974 0.4277184 -0.6131559 
0.1269328 0.3093852 0.03587357 
-0.356232 0.5930152 -0.1732494 
-0.1735747 0.009657232 -0.1480187 
0.3556462 -0.163457 0.6150237 
0.0868482 -0.1728278 -0.1948231 
0.2886519 -0.6270354 0.8838878 
-0.3236354 0.308801 -0.5300797 
0.2251739 -0.4064713 0.9205017 
-0.1236055 0.6822554 -0.4814328 
-0.3388451 -0.3723316 0.8033711 
0.2843174 -0.06497962 0.8531253 
-0.09918245 -0.4943058 0.5488182 
0.2149884 -0.5365117 -0.1167097 
-0.2471887 -0.6130627 0.6597408 
0.07309089 0.2018078 0.7493065 
-0.1981006 0.1258415 0.782952 
-0.1690792 0.1954895 0.4790172 
-0.2865617 0.7294326 -0.3169857 
-0.1799558 -0.5099709 0.1727295 
0.1728036 -0.5671635 0.1641319 
0.2655009 -0.4410621 0.5995306 
0.2168757 0.2116636 0.04521471 
-0.02438346 -0.5247843 0.3808074 
-0.1995877 0.594479 -0.08993419 
-0.1142566 0.1305433 0.8579206 
0.3298502 0.273348 -0.4715118 
-0.2275069 0.2021778 -0.60423 
-0.3789812 -0.3440231 -0.01272354 
-0.4229941 0.7331735 -0.1747676 
0.03266148 0.4490363 -0.5976906 
-0.3762619 -0.06098282 0.1549322 
-0.05391371 -0.4536266 0.1912665 
0.01034856 -0.518147 0.3504137 
0.1829356 0.7348554 -0.1763273 
0.3483319 -0.3370991 0.5054872 
0.325314 0.2582384 -0.439478 
0.1996566 0.05267369 0.8744051 
0.1600199 0.1276781 -0.5182151 
0.1897086 -0.5960787 0.6513881 
0.2222977 0.01318158 0.8829983 
-0.3768637 -0.08278739 0.3105434 
0.2670239 -0.5502425 -0.1186517 
0.3697701 0.5985085 -0.1867778 
-0.1361217 0.07405992 0.9011204 
0.2506362 0.7607251 -0.2271845 
0.3675327 -0.2928506 0.3958757 
0.1122555 0.2082675 0.5962713 
0.2478886 0.07134018 -0.04940441 
0.3853451 -0.418301 0.01375467 
0.3808976 -0.2869313 0.02815152 
0.1937827 0.766514 -0.3474508 
0.311263 0.02173885 -0.002156741 
-0.3783996 -0.3214918 -0.006642386 
-0.3670841 -0.2135534 0.4615534 
-0.107447 0.110107 -0.4828303 
0.3555303 -0.06247532 0.04329331 
0.09218361 0.6719285 -0.07178278 
-0.3165564 0.5859771 -0.1546368 
-0.1363489 -0.2089625 -0.1641962 
0.2741474 0.08953445 0.5198103 
0.3165171 -0.6176819 0.8416411 
-0.2239449 -0.4396696 0.5175036 
0.2694122 -0.5180353 0.6494503 
-0.228792 -0.1129211 0.9121228 
-0.3451043 -0.1633235 -0.03593149 
0.334938 -0.342013 0.8099366 
0.2466784 0.6337432 -0.4487987 
-0.1101272 -0.5302263 -0.03580792 
-0.1575572 0.1528693 0.7873662 
0.2849494 -0.4269025 0.5965915 
0.07562943 0.08365971 0.9188553 
-0.1788612 0.6537411 -0.4836892 
0.2792317 0.5591422 -0.1837015 
0.3971388 0.721405 -0.1632636 
-0.3273542 -0.4583107 0.8588881 
0.1887353 0.2785651 0.1303145 
0.3485925 -0.05646852 0.5972219 
-0.01894566 -0.4365336 0.7243227 
0.3167108 0.04824135 0.04363023 
0.1669543 -0.2443955 0.9356849 
-0.3449072 -0.360833 0.463326 
-0.3144134 -0.08240557 0.8026832 
-0.203636 -0.04699258 -0.1451718 
-0.3353539 -0.6231678 0.1156791 
-0.3154942 0.009834106 0.6850746 
0.3731531 -0.2366259 0.01265674 
-0.3230588 -0.1611471 0.7885755 
-0.3453605 -0.08284964 0.6845763 
0.3802727 -0.4348947 -0.0374557 
0.2026698 0.8395029 -0.2413983 
-0.1429907 -0.2788755 -0.1247826 
-0.03188105 0.8319592 -0.2744308 
0.1477086 -0.4606639 0.2751427 
-0.09515552 -0.2756966 -0.1333515 
-0.2207363 -0.5234041 0.637931 
0.2349786 0.08349914 -0.05464351 
0.3698637 -0.3614957 0.146687 
-0.02616334 0.5892072 -0.5269017 
0.3381811 -0.5083582 0.807698 
0.374569 -0.208401 0.03727691 
0.3189687 -0.4145771 -0.1066803 
0.1259388 -0.5893157 -0.05158728 
-0.3642201 -0.0120334 0.1920714 
-0.05817637 0.2144137 -0.6390443 
-0.1603554 -0.4479484 0.2538086 
-0.2777148 0.3276062 -0.6143074 
0.1883303 -0.4496537 0.5513423 
0.03897932 0.3982589 -0.6337855 
-0.3727711 -0.2376919 0.3961346 
-0.3656432 -0.1079914 0.05775958 
-0.132449 -0.5570376 -0.07074267 
-0.01175488 0.8330606 -0.315707 
0.2261195 0.6161168 -0.4810855 
0.1049146 -0.6053042 0.8830031 
-0.2659229 0.1746693 -0.4102909 
0.1087573 0.3167027 0.1441288 
0.1683622 0.3935441 0.001005047 
-0.2509946 -0.6731975 0.6908613 
-0.09242071 -0.1253238 -0.201498 
0.02443402 -0.1001546 0.9879543 
-0.1246028 -0.0782788 0.9674891 
0.3054826 0.08433409 0.3341271 
-0.4642102 0.6959776 -0.2066162 
-0.0816474 -0.233135 -0.1669085 
0.3208688 0.7228886 -0.1674456 
0.3434516 -0.04724516 0.6383763 
0.308143 0.07502658 0.3483397 
-0.06385148 -0.4928731 0.298174 
0.1773461 0.2186308 -0.03227285 
0.05901877 0.7186259 -0.08895709 
-0.05571324 0.4129991 0.04895986 
0.1115593 0.4766392 0.03883431 
-0.1545271 0.8284196 -0.2200999 
-0.002374495 0.8220752 -0.3745964 
0.1881035 0.1406697 -0.07142349 
0.2434695 -0.01934178 -0.1084654 
-0.171107 0.2409693 0.3770752 
0.01020803 -0.08077751 1.010517 
-0.04130191 0.1030535 -0.3991197 
0.3421862 -0.4545333 0.7749118 
0.1864825 0.5742522 -0.06348106 
0.05666154 -0.3509894 0.8986596 
-0.2238432 0.2471428 0.1332725 
-0.2437695 -0.1074259 -0.1299705 
0.208143 0.1832159 -0.2832435 
-0.1694313 -0.6723747 0.6807457 
-0.3334082 -0.3042746 -0.0887074 
0.3248072 -0.6378868 0.1198213 
0.3400261 -0.3901866 -0.09278493 
-0.3394535 -0.416205 0.7463372 
-0.03786857 -0.2850311 0.9358287 
0.1527208 0.5468359 -0.01530099 
0.09797503 0.3184815 0.07572007 
0.2678887 0.1030496 0.4764001 
-0.025902 -0.3528429 -0.06334215 
-0.2028739 -0.4367694 0.2393446 
-0.2078116 -0.723968 0.8391385 
0.2265815 0.1809981 -0.5810658 
0.3006875 0.05026706 0.563794 
-0.3431499 -0.3133734 0.6374809 
-0.2852207 -0.417509 0.4660434 
0.2819723 0.5111983 -0.425446 
0.3296988 -0.1667598 -0.06533587 
-0.2214008 0.8727058 -0.2611171 
0.3603214 -0.3422142 0.2727372 
-0.1334282 -0.6135163 0.6806803 
0.2267902 0.2070689 0.0584416 
0.3430479 -0.1502636 -0.03430254 
0.1681806 -0.1254006 0.9469476 
0.0392493 0.5469153 0.03744569 
0.3435375 -0.2662311 -0.0753081 
0.1678307 0.2990714 0.1707722 
-0.3215746 0.3761373 -0.3733979 
0.212211 0.136635 0.7150106 
0.2141581 0.2711135 -0.140895 
0.2340768 0.01059615 -0.1027504 
-0.1191807 0.186859 0.7494591 
0.1688375 0.3890714 -0.6301728 
0.05406458 -0.01116361 0.9892887 
-0.054266 0.0007823868 0.9800296 
0.08349339 -0.622993 0.7744201 
-0.07066995 0.1752242 0.814323 
-0.1366897 0.3023443 0.02612212 
0.2565735 -0.2110755 0.8948873 
0.1271689 0.4990984 -0.5607272 
0.342231 -0.446844 -0.09465268 
-0.05771307 -0.5105554 0.3417554 
-0.1936729 0.2461959 0.3347041 
0.2802304 0.7101281 -0.3345463 
-0.3702524 -0.2502412 0.4121145 
-0.1966974 -0.3234977 -0.115243 
0.05862691 -0.07221369 1.012003 
0.1050454 -0.3521073 -0.07655407 
0.2204387 -0.2541073 -0.1288235 
-0.05797469 0.2232205 0.5551076 
0.2562874 0.5065111 -0.1315515 
0.07834414 0.1260531 -0.282247 
0.05773187 0.6574387 -0.03346465 
0.1544447 -0.06264513 0.9567754 
0.0101868 0.2337262 0.4928814 
-0.116688 0.8089223 -0.3477899 
-0.2592394 0.4946794 -0.1317862 
-0.1467434 -0.6808555 -0.03155559 
0.380441 -0.2690079 0.2488711 
0.2761659 -0.6997466 0.7774588 
-0.2816827 0.4968824 -0.2246908 
-0.3295134 -0.2084078 0.7675658 
-0.3767694 -0.3507239 -0.03216355 
-0.3782418 -0.3922011 -0.0361542 
0.09379654 -0.4661922 0.6278583 
0.2520018 0.2943078 -0.1811555 
-0.2740363 0.7584366 -0.2544357 
0.2869036 0.1176614 0.3300526 
0.06348073 -0.4356599 0.0984741 
0.1014714 -0.4962537 0.5420572 
0.3616714 -0.09406506 0.4728659 
-0.1520253 -0.4960092 0.3798269 
-0.04669372 0.118408 -0.3143511 
0.2080281 -0.4674958 0.4345722 
0.2849162 0.2169267 -0.574591 
-0.2858111 0.1511501 0.2244012 
0.3214686 0.251599 -0.5253426 
-0.136242 0.1352133 -0.3168616 
-0.2641494 -0.4429542 0.2191844 
0.2424248 0.2463107 -0.6261403 
-0.3028359 0.3798687 -0.5350459 
0.384282 -0.234834 0.2195004 
-0.3259743 0.05181271 0.318296 
0.04072328 0.3216614 0.2037759 
-0.239001 -0.719277 0.09699906 
-0.350369 -0.066452 0.594651 
0.1068467 0.6648163 -0.4912174 
-0.371998 -0.2921297 -0.02555094 
0.173995 -0.4928875 0.4144537 
0.2591036 0.1072315 0.5293282 
-0.3470962 -0.2314321 0.6531817 
-0.028641 0.1014521 -0.4211854 
-0.01133043 0.2625097 0.4064714 
0.23665 0.2508516 -0.2098058 
-0.36781 -0.4995603 0.1083718 
-0.3197028 0.3821242 -0.3546709 
0.1411089 -0.5494288 0.9183539 
-0.05088968 0.1266823 -0.5389297 
-0.323504 0.03771513 0.3848189 
-0.2317138 -0.6048543 -0.1153148 
-0.02587355 -0.3862265 -0.01986106 
-0.03512491 0.7989524 -0.1653829 
0.2499868 -0.6432058 0.6715867 
0.002522241 -0.4448605 0.7036933 
0.2585147 0.2131348 -0.3151733 
-0.3718028 -0.3004665 0.3293071 
-0.1786945 -0.2278231 -0.1419958 
0.2446054 -0.3400361 0.9113167 
0.08670335 0.8140748 -0.3648218 
-0.1888113 -0.5176499 0.9278424 
-0.01246879 0.01775604 -0.2363237 
-0.1847709 0.6873236 -0.1489646 
0.289887 0.3471465 -0.2151792 
-0.1930476 0.4367546 -0.009155899 
-0.007781548 0.3224207 0.1978893 
0.3292104 -0.3851248 0.3443032 
0.1776902 0.0005883621 0.9241048 
-0.1883686 0.1224725 -0.4693579 
0.0227042 -0.3786026 0.8435255 
-0.2873468 0.003717909 -0.05295894 
-0.1057519 0.6222125 -0.03774898 
-0.3450882 0.007839799 0.3341597 
-0.2901525 -0.7101278 -0.004959361 
-0.3532084 -0.2492887 0.585104 
-0.1690176 0.1820441 0.5816501 
0.3176316 -0.5151225 0.8753781 
-0.1792643 -0.4500083 -0.1067797 
-0.3527732 0.6285135 -0.1456469 
-0.1834058 -0.5768124 0.649704 
0.3418831 -0.373844 0.3452622 
-0.2038709 -0.0605852 0.9274007 
0.3211777 -0.1581943 -0.07639194 
0.2835027 0.1206735 0.058815 
0.2075997 -0.06206373 0.9250119 
-0.1850139 0.1785794 0.5099037 
0.05445845 0.6245216 -0.512391 
0.1983367 0.4278717 -0.5951468 
-0.288583 0.1962373 -0.5364076 
-0.02262702 -0.4078791 0.7909522 
-0.2569237 -0.1012016 -0.1207219 
0.1191613 0.3144971 0.1607025 
-0.2649154 -0.3391919 0.905145 
0.3773647 -0.06176897 0.2469272 
0.06968452 0.07010093 0.930383 
-0.2135754 0.5932578 -0.09975109 
0.1212247 0.1347307 -0.3017724 
-0.1189871 -0.7038405 0.8011052 
0.3686485 -0.2777622 0.4059088 
-0.11925 -0.5647616 0.9045267 
-0.1273745 0.1426762 0.8341849 
-0.276365 0.5743846 -0.1411796 
-0.2387707 -0.6929868 -0.07090651 
0.3823336 -0.1970824 0.1317711 
0.2256763 0.5522751 -0.09145768 
0.05848271 -0.1572722 0.9749216 
0.3448877 -0.2883183 0.6450881 
-0.3067103 -0.4702179 0.1936949 
-0.03962849 -0.4728871 0.6287676 
-0.343357 -0.03042464 0.5079362 
0.1083415 0.09002338 -0.2013708 
-0.172925 -0.7083346 0.09225454 
-0.07810044 0.2224815 -0.6440921 
0.1617658 0.4674173 0.01510757 
-0.2326826 0.7288538 -0.174683 
0.3008005 0.06670307 0.4257049 
0.3503029 -0.2121374 0.6372483 
0.382163 -0.2661201 0.1496268 
0.2755672 -0.01023751 0.8359659 
-0.02060972 0.7639073 -0.1097497 
0.2138558 0.8630413 -0.3064017 
0.1595224 -0.5581107 0.9238347 
-0.1235707 0.5480774 0.005739219 
0.2649251 0.1682906 -0.5180701 
0.3469149 -0.2783067 0.6309686 
0.02549411 0.5104007 0.05214917 
-0.03573503 0.5351527 0.04153495 
-0.1522059 -0.7236763 0.7646854 
-0.1294039 0.312542 0.1837561 
0.3837803 -0.2102162 0.2856846 
0.1593813 -0.6800107 0.1132964 
0.2097758 -0.07338209 -0.1475538 
0.08267664 -0.4903483 0.7145832 
-0.06891568 -0.400449 0.0133475 
-0.1554559 -0.635833 0.1386181 
-0.1793359 0.8929337 -0.3256775 
-0.2035449 0.08859017 0.8344452 
0.1483083 -0.4889072 0.5181577 
-0.3372091 0.045553 0.1346405 
-0.1878227 -0.06244881 -0.1574754 
-0.2589 -0.1525798 -0.122941 
-0.2534161 0.1001334 0.6902167 
0.3206392 -0.627301 0.7904201 
0.09543987 0.7300531 -0.4603287 
-0.08738303 0.7843848 -0.4187189 
0.1084165 0.2206791 0.4888111 
0.3113551 -0.4001578 0.5833205 
-0.1991638 0.2731073 0.1369445 
0.3022673 0.01556969 0.738499 
-0.03915426 0.258468 0.4159686 
0.05533676 0.3138298 -0.6674853 
0.2911499 0.1414876 0.1419661 
0.3487783 -0.256538 -0.06314562 
-0.1751949 0.165026 0.7181317 
0.1797611 0.2039408 -0.04434224 
-0.2117139 0.1450871 -0.3799453 
0.08359573 -0.3017129 -0.1113114 
0.1306899 0.1400826 -0.5538301 
0.182085 0.4938636 -0.552845 
-0.1370122 -0.5248678 0.1317243 
-0.3204523 0.3808317 -0.4423165 
0.2230741 0.137101 0.6480166 
0.3703126 -0.05796369 0.1120353 
0.2710426 0.06771322 0.7303652 
-0.1348838 0.3037394 0.06820805 
0.3085641 0.4235651 -0.3126336 
0.2094085 -0.4380571 0.2962098 
-0.09310588 0.6640226 -0.06509507 
-0.2245574 0.2322488 -0.6281546 
0.07059596 0.4065365 0.04448931 
-0.0690574 0.1837805 0.7982801 
-0.04253947 0.2301976 0.5059062 
0.3067945 -0.5089759 0.1827166 
-0.1281814 -0.3205814 -0.1032142 
0.3212141 0.3685124 -0.4683925 
-0.2226094 -0.6994166 -0.05866405 
-0.1270178 0.3701868 0.01723433 
-0.05698955 -0.4353399 0.8203554 
-0.1242034 0.8650764 -0.3031839 
-0.2821653 -0.6976617 0.7881159 
-0.3687042 -0.2069881 0.4458767 
0.3561764 -0.1008276 0.590099 
0.2183753 0.1711087 0.4343392 
0.3693786 -0.4879857 -0.05663006 
-0.3749143 -0.2190423 0.386098 
-0.3413177 -0.3802443 0.2305447 
0.00715358 -0.401719 0.7982121 
0.1801432 -0.679708 0.897612 
0.2509924 -0.4305296 0.4721013 
-0.2992336 -0.5700285 0.8922946 
0.2230313 0.6832232 -0.4475167 
-0.3464103 -0.153266 0.6940218 
-0.06123509 -0.4204899 0.8543463 
0.09221122 0.3114255 -0.6667889 
-0.1755012 -0.3870744 -0.1053956 
0.02160791 -0.06610651 -0.2240444 
-0.2929262 0.1204542 0.2909783 
-0.2409525 0.003784389 0.8700322 
-0.1630932 0.3357475 -0.6582762 
0.319506 0.3598337 -0.3341898 
0.1315862 -0.5616758 0.1222867 
0.01438663 -0.4809336 0.2570918 
-0.2812293 0.3208383 -0.2138558 
-0.2927552 -0.4204178 0.2318861 
0.2519968 -0.6154754 0.1766849 
-0.0645595 0.5317804 0.03890603 
0.3710829 0.6358196 -0.1460695 
0.2824669 0.5535133 -0.2632819 
-0.2629559 0.1452177 0.04677194 
-0.2901292 0.1040162 0.3534573 
-0.01745658 -0.4748752 0.24245 
-0.07392546 0.2017474 0.7486314 
0.3857887 -0.1842935 0.2639191 
-0.346981 -0.1178086 0.6908462 
-0.1851147 0.639308 -0.4886763 
-0.07317156 0.6603962 -0.4963234 
-0.09571954 -0.4103225 -0.01744318 
-0.2296568 -0.4841485 -0.1196617 
-0.2245494 0.5051334 -0.06283982 
-0.3118437 0.6278009 -0.1370963 
0.365642 -0.3094969 0.392543 
0.2363487 -0.4337925 0.2398892 
0.2487662 0.163846 -0.538498 
-0.3808965 -0.2914909 0.1217014 
0.2120251 -0.1046855 -0.1497445 
-0.05274447 -0.4981629 0.5630955 
0.3237833 0.367873 -0.3861323 
0.2724373 -0.4175105 0.343183 
0.03996448 -0.3175631 0.9155733 
-0.01216861 -0.4228525 0.755134 
0.2230568 -0.6383678 0.9134432 
-0.1207148 0.1667743 0.7980078 
-0.2567065 0.5117105 -0.1341419 
0.3149797 0.0549323 0.3780206 
-0.3296575 -0.3798247 0.5111003 
-0.2201856 0.2707112 -0.6457304 
-0.2533118 -0.004233524 -0.09342757 
0.3535889 -0.1629282 0.6334935 
-0.3344055 -0.3639455 0.5651132 
0.2904422 -0.6640733 0.8480297 
0.2214195 0.2549669 0.2280174 
0.2258017 0.4846282 -0.05323179 
-0.3574676 -0.3181443 0.464556 
0.2634694 0.3942298 -0.1206618 
-0.1496708 0.2455454 -0.6497068 
0.3217735 -0.2821181 -0.09336221 
0.3086444 -0.3218663 -0.1045808 
-0.2426783 0.5386541 -0.1055345 
0.2900417 -0.2256034 0.8643914 
0.1764824 0.1291863 -0.3812415 
0.2253854 0.2165029 0.3209305 
-0.2900618 -0.7022797 -0.03461206 
-0.3563027 -0.2140912 0.5762925 
0.1289181 0.537367 -0.5425964 
-0.09637398 -0.2877264 -0.1226728 
0.1137053 0.6903092 -0.1102812 
0.3577983 -0.06130588 0.4306186 
-0.09276535 -0.5933663 0.7238426 
0.2328821 0.04963445 0.8428984 
0.2213804 -0.3271581 -0.1179572 
-0.3151527 0.3672047 -0.5114609 
-0.3261978 -0.3995677 0.2252903 
0.2687084 0.1858971 0.1509922 
0.26429 -0.4559082 0.2103993 
-0.2016841 0.7258419 -0.1718335 
-0.06282272 0.1097872 0.9009771 
0.3742269 -0.265998 0.363467 
-0.116165 0.3154786 0.04097218 
0.1953118 -0.7069664 0.1088996 
0.3384776 -0.06561781 0.7123572 
0.265111 -0.2622951 -0.1169281 
-0.3431497 -0.1149997 0.7145841 
0.3804742 -0.2243477 0.3248713 
-0.2825725 0.5329782 -0.3631501 
-0.3842341 -0.2346051 0.2112742 
0.1851447 -0.6268442 -0.09588405 
0.12041 -0.4728175 0.1058376 
-0.3846181 -0.4734689 0.03840014 
-0.257796 -0.007826297 0.8592699 
0.1870646 0.2708796 0.2932545 
0.3143749 -0.4019771 0.6010978 
-0.2878392 0.7607799 -0.2463708 
-0.3788331 -0.07743403 0.1551512 
-0.1759864 0.118515 -0.4581338 
0.1741896 -0.4559238 0.1807876 
-0.3301335 0.2787258 -0.4773226 
0.111905 -0.46039 0.08968966 
-0.2807681 0.1625005 0.2131265 
0.2940399 0.6800697 -0.1469634 
-0.2271967 0.1303985 0.6797677 
0.07620416 0.4092962 -0.6257521 
0.1147733 -0.1962205 -0.1768594 
0.0450191 0.304015 0.3032256 
-0.1175958 0.1141652 -0.4966823 
0.2152581 0.2360804 -0.1905442 
0.01940611 -0.3862985 0.8283685 
-0.1151036 -0.4900872 -0.04709773 
0.2061991 0.4105116 -0.6050986 
-0.1495384 0.3046529 0.1428926 
0.07386467 -0.1430924 0.9741271 
-0.1822348 -0.7221215 0.8429146 
0.3576691 -0.3791721 0.1794612 
0.3259505 0.01718088 0.4495334 
-0.07512267 0.321463 0.1742287 
0.3527017 -0.04213364 0.4305855 
-0.007601524 -0.5002278 0.3011264 
-0.2083197 -0.3803634 -0.1130665 
-0.04244325 0.2403121 0.4646157 
0.1118491 -0.5004116 0.904668 
-0.1251422 -0.4724606 0.2851424 
0.3832649 -0.1696379 0.1521535 
0.3348034 -0.04900329 0.7128068 
-0.2046145 0.2605031 -0.1363341 
-0.2808529 0.3460298 -0.1894955 
0.2092002 0.1878161 0.416927 
0.1002501 -0.5500319 0.02941233 
0.01804395 -0.4869151 0.271628 
0.148648 0.458474 -0.5832672 
-0.3008472 -0.4098421 0.4690601 
0.1644836 0.2146524 0.4361083 
0.3591125 -0.1112706 0.545989 
-0.2855432 -0.4659389 0.6412393 
-0.3480282 -0.0125795 0.3756602 
0.05140794 0.6714488 -0.03989363 
0.2260522 -0.6864142 -0.07606268 
-0.004949761 0.08636501 0.9290857 
0.2590351 0.2009863 0.1464634 
0.07892283 -0.61562 0.7919825 
0.236555 -0.09462376 0.9059276 
-0.1459536 0.2951689 0.05024314 
0.1135296 -0.6035755 0.07682325 
-0.1300114 -0.514756 0.6621873 
0.2042024 0.3186527 -0.6529438 
0.2823546 0.3385384 -0.1992617 
0.2074114 0.6228696 -0.1159037 
-0.07447476 0.7269551 -0.1103398 
0.2099599 0.5165005 -0.05084573 
0.1898426 0.7128746 -0.1637231 
-0.3535348 -0.2084457 0.6109583 
-0.2235131 -0.4377207 0.3331457 
0.05106067 -0.2208287 0.9613789 
0.2759241 0.3397657 -0.1816797 
0.2025361 -0.5591165 -0.1121045 
-0.1599438 0.1666074 -0.21608 
0.2300357 0.2355528 -0.2210488 
0.3414698 -0.51115 0.1555589 
0.1792484 -0.7309421 0.7785085 
-0.04225339 -0.4538732 0.6821511 
-0.2594279 -0.533334 0.1910497 
-0.1948499 0.8796794 -0.3275756 
0.3049877 -0.5494367 0.6890949 
-0.209142 -0.7006461 0.6932889 
0.3817536 0.6058875 -0.1764066 
-0.3677082 -0.1624305 0.03591114 
-0.3510669 0.01841595 0.1568889 
-0.423362 0.6500154 -0.2393633 
0.1552639 0.06026236 0.9003481 
-0.2426886 0.1204077 0.6068561 
0.04512442 0.1229777 0.8929251 
-0.1527992 0.4439017 -0.5929425 
0.339085 -0.3523555 0.5646297 
0.2591504 0.5890652 -0.1244042 
0.2907757 -0.07952313 0.84595 
0.1407345 -0.5320636 0.9186134 
0.1351259 0.1724525 0.7694267 
0.3832508 -0.1897866 0.3090745 
0.1890597 -0.4747835 0.4841025 
0.2105991 0.7401292 -0.3793957 
-0.2805666 -0.4158119 0.36618 
-0.0746918 -0.4635481 0.8644282 
0.2032367 0.4718272 -0.5619522 
0.2261043 0.4269366 -0.04346381 
-0.3758852 -0.3180326 0.1671516 
-0.3210716 -0.4974048 0.1742674 
-0.4544648 0.6713682 -0.1961718 
0.05900113 -0.4223934 0.05718723 
0.1297534 0.3795964 0.01893862 
0.07371052 0.2237824 0.5254764 
0.2665423 0.1855223 0.2319424 
-0.2618441 0.3074736 -0.6291292 
-0.3529672 -0.1569709 -0.01515049 
-0.2637027 0.2104735 -0.3298882 
0.2835857 -0.4179693 0.4769164 
0.1924212 -0.5828754 -0.1076745 
-0.3655288 -0.4263 -0.0657644 
-0.1922471 0.1484799 0.7369271 
-0.3003584 0.2031974 -0.4498342 
0.3576739 -0.2138693 -0.03271636 
-0.009102927 0.7842773 -0.1308218 
0.3772261 -0.3296368 -0.0192351 
-0.2790604 0.07518629 0.6406317 
0.02811035 -0.08497526 1.012404 
0.03278749 0.6758299 -0.03591456 
-0.2660702 -0.0755026 -0.1093483 
0.1471283 -0.1302404 0.9546241 
0.2826551 0.1583221 0.1445485 
-0.06292594 -0.1355595 0.9776305 
0.3027284 0.6297486 -0.3155511 
0.305323 0.4191492 -0.2773965 
0.1366917 0.3252181 0.001882756 
-0.3741162 -0.5680538 0.04400942 
0.3104693 -0.5873326 0.1597743 
0.1349644 -0.008182779 -0.1769254 
-0.1146822 -0.4380515 -0.05222872 
0.213611 0.7522666 -0.3235704 
0.1149453 0.8893473 -0.2530376 
-0.1224322 -0.1332749 -0.1899212 
0.3267337 -0.4880241 0.8603388 
0.3019905 0.3045481 -0.2861073 
-0.07054587 -0.1973836 0.9653565 
0.3683572 -0.2156603 0.4471542 
-0.09308702 -0.4338861 0.8998774 
-0.004440671 0.4760021 0.05880354 
-0.2141442 0.2654552 -0.1485057 
0.1714511 0.2589492 0.3439398 
0.3351143 -0.01664761 0.6003537 
0.2551079 0.1086392 0.5782594 
-0.2075123 0.1526534 0.6232576 
-0.2303183 -0.4581871 0.6019201 
-0.3745964 -0.2710102 0.001824579 
0.3633105 -0.1383972 0.5098819 
0.1364833 -0.5475612 0.1306923 
0.2063196 0.4222491 -0.02281005 
-0.1553149 0.9363061 -0.2402939 
-0.0002534725 0.08887453 -0.2577565 
-0.3760039 -0.3058257 -0.01197756 
0.1983592 0.5598838 -0.06200369 
-0.1144722 -0.5524938 0.6806164 
-0.2510515 -0.2768313 0.9042481 
-0.2990778 -0.02868766 0.8078686 
-0.3350052 -0.5321675 0.7649216 
0.01899083 -0.04274739 1.026175 
0.003044106 -0.3798134 0.8364123 
0.105887 -0.08388574 -0.1982554 
0.3057039 -0.645336 0.1370244 
0.02505692 0.7511703 -0.4552563 
0.2279085 0.2321387 0.2793814 
0.340155 -0.337895 0.7305522 
-0.1056027 -0.4512654 0.9023165 
-0.3609212 -0.05002315 0.3785788 
0.05865822 0.6415585 -0.505587 
-0.1074381 0.8248117 -0.2224721 
0.3650666 -0.6207423 0.02745664 
0.08659316 0.807534 -0.3824334 
0.2260488 0.08840728 0.8026577 
-0.3455336 -0.1272137 -0.01966112 
0.1983276 0.1536981 -0.3339111 
0.2031252 0.8596019 -0.3200918 
0.377453 -0.5440031 -0.00912145 
-0.286868 0.01314864 0.7898819 
0.1115824 -0.5799465 0.6881353 
0.3571039 -0.1514525 0.6023836 
-0.379234 -0.399474 0.093556 
0.2491107 -0.7160442 0.09755902 
-0.1650865 -0.4553046 0.2798636 
-0.04368722 -0.1730911 0.9734485 
-0.320346 0.3314071 -0.3338248 
0.27896 0.1317098 0.3282288 
0.2414633 0.1226238 0.5899723 
-0.3854786 -0.407313 0.04278919 
-0.1969254 -0.4721634 0.3792504 
-0.1557362 -0.46929 0.3037835 
0.2210799 0.1637706 -0.003557689 
-0.1101262 0.1173321 -0.2157836 
0.1501091 0.6896832 -0.1348323 
-0.1285673 0.6545313 -0.08755852 
-0.1156573 0.889037 -0.2460708 
0.2046575 0.1618056 -0.02966502 
0.0411258 -0.244375 -0.1671116 
0.3506874 -0.3583195 0.3547486 
-0.1700405 -0.4791258 0.5104448 
-0.3582933 -0.1162595 0.5668013 
0.3599498 -0.1723403 0.5587751 
-0.3021483 -0.7025034 0.05326208 
-0.3770878 -0.5238887 -0.03852538 
0.3605422 -0.611912 -0.03033638 
-0.07595465 -0.4052809 0.8801368 
0.08628847 -0.4173389 0.04431896 
0.210137 0.8566737 -0.244688 
-0.3558605 0.008771217 0.1989405 
0.3742296 -0.04796954 0.1692484 
0.08978004 -0.6422802 0.8303905 
-0.1662902 0.2126251 -0.6287246 
-0.3759962 -0.3078448 0.182525 
0.150486 0.2737926 0.3380492 
-0.3396689 -0.5881072 0.1292716 
0.3580439 -0.5062586 0.1277477 
-0.04489507 0.3113688 0.2742366 
-0.05638858 0.2208438 0.6495416 
-0.3003667 0.05182382 0.5476014 
0.3261222 0.2829916 -0.5367406 
-0.07380101 -0.3655407 -0.03959255 
0.3369499 -0.07612658 0.7288719 
0.1497682 -0.47474 0.1607704 
0.2085002 -0.7322141 0.8020595 
-0.2667084 -0.4217387 0.3719403 
-0.2854154 -0.6234369 -0.1025299 
0.00404212 0.7680336 -0.4458749 
-0.189897 0.2450931 -0.1258479 
-0.3202279 -0.5857954 0.8497971 
0.2298516 0.2998419 -0.1348532 
-0.1767713 -0.4684185 0.3280418 
0.3301575 0.04001505 0.3293396 
-0.2513552 0.6744844 -0.1469687 
-0.375502 -0.5607768 0.003375414 
0.3399425 0.02636584 0.09381329 
-0.1835447 0.7276906 -0.1721821 
-0.2785165 0.5490655 -0.3693713 
0.1258069 0.04292675 0.9273974 
0.3609143 -0.008828022 0.1396349 
0.2515955 -0.7206526 0.7841944 
-0.2848093 0.3832544 -0.5654418 
0.1737924 0.2404763 -0.0757497 
-0.1674953 -0.3222161 0.9248276 
-0.1054216 0.1939042 0.7437499 
-0.1962053 0.3396723 -0.05179223 
0.05817298 -0.4500785 0.8030915 
0.2178023 0.6298732 -0.4823323 
-0.248907 -0.03696817 -0.1111645 
-0.3027503 0.7297233 -0.3152685 
-0.1200218 -0.1348162 0.9633332 
0.0476455 0.5182642 -0.556847 
0.3359395 -0.3689941 0.678722 
0.2433423 0.5404814 -0.1073176 
-0.3544684 -0.4147104 0.1696856 
-0.3245455 -0.009104363 -0.001580008 
-0.004986982 -0.3600975 0.8658201 
0.07381981 -0.553376 0.8345588 
-0.3693194 -0.07379721 0.09182309 
-0.3727735 -0.3821343 0.1162096 
-0.05155865 -0.5052211 0.5446045 
0.2840303 0.2926437 -0.2514327 
-0.444188 0.7262353 -0.1738176 
0.3205717 0.2409539 -0.4608154 
0.3106948 0.6004539 -0.2693713 
0.3655642 -0.2269776 -0.01468529 
-0.1409613 -0.7062374 0.7361137 
0.14879 0.1550353 -0.2615242 
0.138538 0.1280627 0.8458036 
0.2398363 0.1270586 0.5473925 
-0.175178 0.1451149 0.778345 
-0.3281664 -0.2782611 0.7996206 
0.04250877 -0.1597642 0.976362 
0.04720705 0.5410641 -0.5468335 
0.2850605 -0.01336316 -0.06614125 
0.2681545 0.5522497 -0.1584942 
0.1421814 0.2994761 0.06802826 
-0.09064411 0.2215148 0.5094212 
0.1605031 -0.6569493 -0.0660161 
0.3420705 -0.4753712 0.7870748 
-0.1533577 -0.5686155 -0.08645009 
-0.4163707 0.7035508 -0.2888288 
-0.03040921 0.4145991 -0.62252 
-0.05531846 -0.441722 0.8040548 
0.3270606 -0.002871942 0.6350582 
0.1708891 0.2024775 0.4574445 
-0.4477477 0.7453523 -0.2064869 
0.3169862 0.7463382 -0.1885022 
0.2826865 -0.5330935 0.9071569 
0.3054693 0.4324203 -0.298564 
-0.3252504 0.0294047 0.4023989 
0.0567158 0.5737679 -0.5323334 
-0.3766434 -0.2856345 0.2856048 
-0.1096353 0.7760379 -0.4217791 
0.2914613 0.7466257 -0.2888523 
0.2933471 0.4560905 -0.4546149 
-0.2423255 0.2644151 -0.2019797 
-0.3836024 -0.12196 0.2898087 
0.1773926 0.9343412 -0.3037557 
0.3056659 0.3539608 -0.5488063 
0.2622469 0.5019833 -0.4980333 
-0.1683045 -0.3556702 0.923184 
0.1254397 0.8035681 -0.3641171 
-0.2448355 0.1195413 0.5798805 
0.1596419 -0.08109622 0.9533896 
-0.1398665 -0.6930457 0.05447153 
0.1204812 -0.6266404 0.8926562 
-0.3201962 -0.36615 0.8593074 
-0.03914258 0.8080027 -0.1852805 
-0.384732 -0.4198116 0.006898706 
0.2998568 0.4557531 -0.3975769 
-0.258439 0.3900642 -0.590816 
0.08489937 -0.6228981 0.8302622 
0.3157423 -0.4439558 0.6675949 
-0.3442721 0.0269236 0.2676529 
0.2327036 -0.4740177 0.622629 
-0.09509495 0.5111384 -0.5572993 
0.1726091 0.2594952 -0.06526411 
-0.1361439 0.5377576 0.00361388 
0.192369 0.2703439 -0.6517842 
0.2813002 0.3551921 -0.1842469 
-0.08824266 -0.5401075 0.8747637 
0.02396537 -0.3156585 0.9146286 
-0.2807935 -0.6829593 0.7336684 
-0.1723007 0.2862883 0.09299543 
-0.1842441 -0.5566852 0.6465623 
0.1109752 0.8154452 -0.3167282 
0.3590102 -0.4000276 0.1612151 
-0.1858391 -0.5934398 0.6517897 
0.3785402 -0.5247809 -0.0348376 
0.3544459 -0.3512062 0.3319208 
0.2473918 0.1683005 0.3578246 
-0.2312297 0.2269968 -0.2373354 
-0.1280817 -0.4742028 -0.07333039 
0.168209 0.1464212 -0.3179907 
0.3213341 -0.2707081 0.819815 
0.2919375 0.4883342 -0.286898 
0.3220998 0.07154316 0.2709556 
-0.2990425 -0.2446035 -0.1044224 
-0.3012753 -0.4322832 0.6416096 
-0.06277861 0.2219834 0.5708878 
0.2799016 0.2705278 -0.6115343 
0.2898512 -0.4775692 0.6493046 
0.1974946 0.2813665 0.1890815 
0.1482411 -0.5698248 0.9198447 
-0.126689 -0.4706051 0.5821148 
0.3514345 -0.0716828 0.5898978 
-0.2912198 0.02190896 0.767231 
0.3142385 -0.5940813 0.8574603 
-0.1915144 0.3838215 -0.6294421 
0.1306975 0.7835778 -0.4051262 
0.05190249 -0.01118197 -0.2227549 
-0.253943 0.1984595 -0.586728 
-0.2825826 -0.5962336 0.8972865 
0.09246124 -0.6636156 0.7978243 
0.3030161 -0.1818635 0.8340517 
0.1279027 -0.6429076 0.6936158 
0.2599704 0.166233 0.3173821 
-0.07771178 -0.1196226 -0.205967 
-0.3679696 -0.19179 0.4587637 
0.3325861 -0.02567716 0.6766644 
0.1446824 0.2229793 0.44391 
-0.2080734 -0.6782048 -0.0792983 
0.3522232 0.6847968 -0.3297186 
0.3458824 -0.3098599 0.599765 
0.2257977 0.1424913 0.5227223 
0.2054439 0.5887441 -0.09039956 
-0.103451 -0.4430591 0.05987247 
0.2212809 0.3564885 -0.6351671 
0.29133 0.6150882 -0.3037855 
0.3420937 -0.3947845 0.7603439 
-0.3445871 -0.3957434 -0.09068087 
0.1010997 0.2824605 0.3495708 
0.2265227 -0.4341897 0.3254334 
-0.3204141 -0.5931858 0.7452419 
0.1055853 -0.2924446 0.9333873 
-0.2100024 0.3529367 -0.05978331 
0.3807734 -0.4857149 0.06031318 
-0.1517204 -0.09903966 0.955665 
0.1847942 0.1700772 -0.05567206 
-0.15314 0.3010086 0.2513373 
0.3585375 -0.5532693 -0.06339055 
-0.3006327 0.1223675 0.1384235 
0.1058671 -0.4993133 0.05890812 
-0.2011562 0.6892024 -0.1508503 
0.170565 0.1789905 0.6371981 
-0.3294382 0.06193849 0.1318789 
0.153682 0.5791813 -0.5198596 
-0.03579374 -0.1901789 0.9708312 
0.2867796 0.0362304 0.750209 
-0.1043479 -0.4198166 -0.03591006 
0.304463 -0.1166676 -0.08174135 
0.1305064 -0.2866674 0.9336076 
-0.03845899 -0.3739379 0.8611625 
-0.1506752 -0.3204825 0.9265397 
-0.03106676 0.3085975 0.2850169 
-0.09376253 0.1366728 -0.5525915 
-0.3810047 -0.209695 0.1021405 
-0.06996948 0.06556494 0.9335017 
0.2736542 0.1753272 0.2172569 
0.1501567 -0.6273674 0.6715188 
-0.1251441 0.3161391 0.0207603 
-0.2887048 0.5046354 -0.2896271 
-0.1278974 -0.5524244 0.6710462 
0.101776 -0.545889 0.0137732 
0.2874002 -0.4185322 0.5678425 
-0.1505233 -0.07231173 -0.1779121 
-0.1172275 -0.6016745 0.6889759 
0.03625932 0.3274029 0.09044581 
0.3245347 0.3655638 -0.4194457 
0.1894747 0.2855196 0.1636252 
-0.2209566 0.1370123 -0.4306285 
-0.3153906 0.3043394 -0.5613605 
-0.3406008 -0.6721877 0.02374287 
0.3130675 -0.6278622 0.7500828 
-0.318319 0.3136141 -0.3357027 
0.403083 0.7455476 -0.2757088 
0.02250217 -0.08113471 0.9925887 
0.1976881 0.2513027 0.06952593 
-0.2857453 0.1351019 0.285622 
0.1758476 0.1188054 -0.4334604 
-0.0006323247 -0.1180209 -0.2164423 
-0.2658351 0.3078007 -0.1948902 
0.1155683 -0.6635977 0.7232567 
-0.3676761 -0.2176185 0.001183202 
0.31257 -0.5345761 0.6970966 
-0.1841632 -0.7200668 0.7269832 
0.1618116 -0.1689618 -0.1681443 
-0.2707868 0.399074 -0.1349448 
-0.3786781 -0.09360269 0.1325263 
0.1923238 0.1482574 0.7376218 
-0.3831221 0.6699412 -0.144531 
0.3689713 -0.03594238 0.2742728 
0.07568395 -0.5148027 0.8576931 
-0.3414871 -0.3882812 0.7868493 
-0.1664513 0.1622092 -0.2660558 
0.2056616 -0.4893948 0.1920574 
0.2564294 -0.02879189 0.872096 
0.3532578 -0.02111539 0.3592283 
0.2552311 -0.4316212 0.5501357 
0.1146791 -0.5965856 0.6892713 
0.1935786 0.4441198 -0.009049199 
-0.359553 -0.1167652 0.5440754 
-0.3068373 -0.6904064 -0.02946866 
-0.1734989 0.1470649 -0.3226843 
-0.1903708 -0.4421167 0.2240292 
0.2740691 0.5585269 -0.3960559 
-0.003563517 0.5962636 0.01938761 
0.1370534 -0.7171091 0.7879009 
0.2241833 -0.1145594 -0.1435637 
-0.0552245 0.147088 -0.5728557 
-0.05453278 0.3508779 0.0351245 
0.3297517 0.0429043 0.08089543 
-0.3421713 -0.0102774 0.4199726 
0.05517225 0.520676 0.04466348 
-0.3777922 -0.5433302 0.04801937 
-0.1312584 -0.6890305 0.04062329 
0.1841653 0.7504496 -0.1862208 
0.006379765 -0.333249 -0.09011406 
0.07502879 0.8196075 -0.3486869 
-0.1079172 -0.4862897 0.3061321 
-0.03419402 0.2051327 0.7621566 
0.3090656 -0.3986344 0.2807968 
0.2936833 0.1067754 0.06481769 
-0.1326363 0.4219256 -0.6128213 
-0.3318019 -0.3669395 0.5826516 
0.1619773 0.06237008 -0.1424507 
0.09261844 0.2126819 0.6473197 
0.3195826 -0.5460423 0.7139361 
-0.2738208 -0.5811244 -0.1146639 
0.2730799 0.002099693 -0.07216087 
-0.05412962 -0.4745335 0.6208445 
-0.2202663 0.524461 -0.06931116 
-0.3153666 0.2239376 -0.4868777 
0.3670721 -0.04493887 0.3159941 
-0.1378931 0.6436189 -0.4962962 
0.1393356 0.7736455 -0.4154767 
0.3553272 -0.1922966 0.6045679 
0.008234646 0.394248 -0.6366143 
0.2695171 -0.6991632 -0.0490704 
0.3600873 -0.391606 -0.07146595 
-0.3720648 -0.2743218 0.3758841 
-0.311512 0.0290612 0.6259522 
0.2844314 -0.6016461 0.6817626 
0.0881386 0.3688231 0.03111549 
0.2953711 0.7609916 -0.2228573 
-0.3834678 -0.2288641 0.2717917 
-0.201322 -0.4438684 0.3038149 
-0.08190541 0.007437801 0.9664323 
-0.3124429 0.2239203 -0.5188885 
0.2042187 -0.539698 0.1826795 
-0.2675405 -0.6162907 -0.1093049 
0.3120315 0.03956822 0.477054 
-0.3168858 0.03257574 0.4695327 
0.1484396 -0.6409355 -0.06280531 
-0.3048138 -0.511403 -0.1172115 
-0.2405721 0.1439186 0.00628828 
0.001468538 -0.4421101 0.09958927 
-0.005672811 -0.4062262 0.7891573 
-0.04280027 -0.4314947 0.7569315 
0.1913037 -0.4829367 0.4129029 
-0.3325179 -0.3871773 0.4302224 
0.03244023 0.7253841 -0.07535445 
0.3382099 -0.6665541 0.05670311 
0.07264517 0.6526184 -0.4996976 
-0.1606969 -0.2842306 -0.1208724 
0.4356235 0.6823999 -0.255445 
-0.3161706 0.4012276 -0.3937116 
0.09915691 -0.6370318 0.732507 
-0.08541248 -0.1064744 0.9764923 
0.05690993 0.2995062 0.3165866 
-0.3013675 0.4072144 -0.2445323 
0.2852243 0.04793324 0.7286249 
0.1897936 -0.4538212 0.5255386 
-0.1642126 0.2543699 -0.6511714 
0.05185359 -0.4348351 0.8003531 
-0.1045908 0.8029399 -0.2031703 
-0.1790175 0.9534032 -0.2610118 
0.05760768 0.2228813 0.5665222 
0.2461266 0.2168029 0.1310659 
-0.1597317 -0.4133604 -0.09737956 
0.04864112 0.03856783 0.9564652 
-0.07809053 0.8217601 -0.3187877 
0.3187022 -0.6042109 0.7496079 
0.3466051 -0.3658463 0.3302268 
-0.2893186 -0.1330581 -0.09936673 
0.327216 0.07271323 0.1960819 
-0.1125444 -0.1864878 -0.1813189 
0.01902094 0.8239611 -0.2175064 
-0.02006612 0.630398 -0.002884097 
0.2019927 -0.6251542 0.1694262 
-0.2701583 -0.6146331 0.676142 
-0.1022337 -0.4732186 -0.02363158 
-0.01355848 -0.2484205 -0.1661298 
-0.2459535 -0.5738667 0.1871063 
-0.1816595 -0.6662368 0.9032046 
-0.3030289 -0.4918315 0.8943891 
-0.1449144 0.01548678 0.9344702 
0.3154467 -0.5639217 -0.102864 
0.1138415 0.1197211 -0.2134453 
0.279863 0.5449088 -0.3644305 
0.2649081 -0.4214575 0.3590286 
-0.3177288 -0.463647 0.8786288 
0.1115384 0.2030177 -0.6276975 
0.3028657 -0.3972645 0.8876429 
0.2134259 0.08022968 0.8331071 
0.02835715 0.8321695 -0.2709946 
0.3196666 -0.4437467 0.8729247 
0.2406708 -0.6045228 0.1814065 
0.3326466 0.05468308 0.1303827 
0.3396259 0.5950314 -0.2412885 
-0.3075609 0.3079468 -0.3025932 
0.151009 0.3896081 0.01270163 
0.3142729 -0.4014012 0.4544082 
-0.08623601 0.3218763 0.08002724 
-0.08029926 -0.5110437 0.7254012 
-0.09313737 0.08981572 -0.2155531 
0.2288289 -0.4842249 -0.119475 
-0.3350303 -0.3783919 0.2708972 
-0.3838007 -0.1695565 0.1588907 
-0.04427747 -0.3397511 0.8993042 
-0.1903991 0.1304153 -0.3941486 
-0.2026574 0.4520295 -0.01686901 
0.2928867 0.2692696 -0.5977798 
-0.28375 -0.3667521 0.8958914 
0.3405657 -0.6080658 0.1178528 
-0.119324 -0.6219187 -0.03225719 
-0.1516825 0.8787969 -0.2206123 
0.0007454482 0.1296772 -0.5447387 
-0.1210246 -0.2971937 0.9318005 
-0.3198958 -0.4388562 -0.1072305 
-0.29194 -0.4480182 0.6397716 
0.2834019 0.5257215 -0.3723143 
0.2147297 0.7155666 -0.4221943 
0.1253188 0.2125686 0.4980747 
0.1827153 0.08916692 -0.1086975 
-0.3182297 -0.3985114 0.3979363 
-0.07698166 -0.4656821 0.6955601 
-0.3776006 -0.05533088 0.1952937 
0.3093987 0.2742255 -0.3426009 
0.3184658 -0.4761347 0.8779851 
-0.124128 -0.5106426 0.4567885 
-0.1070983 -0.4715965 0.6499196 
0.3605953 -0.0818947 0.4499282 
0.1992452 0.5165305 -0.5373288 
0.3455587 -0.3040015 0.6155591 
0.3001942 0.2048029 -0.4449093 
0.1868686 0.3894359 -0.6263696 
0.1980961 -0.6841159 -0.06841283 
-0.1329909 0.8018426 -0.3636835 
-0.00389479 0.2349431 -0.650239 
-0.3268443 0.2869877 -0.530278 
-0.1459183 -0.2579201 -0.1369155 
0.2420238 -0.490717 0.1988036 
0.02690139 -0.4163457 0.7753989 
-0.03139247 0.3040786 0.3028399 
0.3444769 0.03567551 0.1747116 
0.1583354 0.7846701 -0.2074147 
-0.4494569 0.6670887 -0.2111939 
-0.1750844 0.2953161 0.2162909 
-0.2934344 -0.5061793 0.900333 
-0.006137981 0.4809159 -0.5779194 
-0.3066798 0.3840424 -0.2644601 
0.1703979 0.198305 -0.1176185 
-0.0439815 0.28754 0.3481719 
-0.05508877 -0.3793024 0.873035 
-0.3290184 -0.284854 -0.08914492 
0.3338418 -0.4744632 -0.09932711 
0.04751236 -0.3300744 0.9078025 
-0.2085487 0.8392993 -0.3030702 
-0.3840116 -0.3936586 0.05566541 
-0.2276703 0.7092551 -0.3983698 
0.1478795 -0.2448988 -0.1417159 
0.3999571 0.7539493 -0.2595939 
-0.2036138 0.08878104 -0.0842144 
-0.2599286 0.6144432 -0.1279881 
0.141519 0.2820004 0.3268019 
0.08196411 -0.433936 0.0980418 
0.1164058 -0.09143391 0.969072 
-0.07109997 -0.5122343 0.3537928 
0.3818574 -0.2039146 0.3205756 
0.3848525 0.708652 -0.1549767 
0.2775546 0.4084364 -0.5526046 
0.1306354 -0.3571011 0.9218879 
0.1699833 0.1375759 -0.3454311 
-0.08677813 -0.640448 0.8207787 
-0.2810396 -0.430649 0.2248812 
0.1447978 -0.6442502 0.1228408 
-0.343234 -0.412152 -0.09281378 
0.2169554 -0.7300692 0.02018193 
0.2062321 0.7058344 -0.4411442 
0.1524625 -0.5418042 0.1510305 
0.06918412 0.4469438 -0.5988938 
-0.3559372 -0.3914268 -0.07913791 
0.07677659 0.6341553 -0.5071762 
0.3826505 -0.3665493 0.06364782 
0.07251818 0.2182858 0.6454787 
0.302203 0.4370561 -0.2797943 
0.2473646 -0.003326278 -0.0983041 
-0.3171749 -0.03721227 0.7692351 
0.1320692 0.1119939 -0.4777609 
0.1702953 0.768339 -0.4021907 
0.1139194 -0.5041738 0.5061908 
-0.3600873 -0.6310682 0.03375255 
-0.01112507 -0.358775 -0.05951977 
0.0732047 0.6889395 -0.07185797 
-0.2999711 -0.1341278 0.8369216 
-0.2775065 -0.4547401 0.207294 
0.2896383 -0.6341742 -0.09699779 
0.03094493 -0.1471873 -0.2087324 
0.06272309 -0.4719827 0.8104961 
0.287674 -0.5036321 0.1902355 
-0.3561673 0.7480322 -0.2846107 
-0.08423065 -0.3915023 -0.01783463 
0.01181976 -0.1843661 -0.1987926 
0.2778661 0.4891073 -0.1954463 
-0.1700737 0.3886726 -0.6302166 
-0.05683304 -0.4503229 0.7766696 
0.2865707 -0.6853911 0.1190656 
0.1267301 -0.4457566 0.150017 
-0.2974285 -0.08282042 0.8360686 
-0.2343532 0.2189487 -0.2567429 
0.2973182 0.3552309 -0.2314523 
-0.1302508 -0.6660956 -0.01647284 
-0.1125459 -0.4742881 -0.04355521 
-0.2395562 0.1663325 0.3860815 
-0.1081393 -0.408615 -0.04713891 
-0.3544287 -0.0008881586 0.1134591 
0.1777259 0.6644833 -0.4789324 
-0.1064396 0.6785547 -0.09164101 
0.1466507 0.2161098 0.460349 
-0.3326768 0.29957 -0.4721535 
-0.2080032 0.2081525 0.3776424 
0.1134533 -0.4395918 -0.049709 
0.2241297 0.664317 -0.4596246 
0.3548634 -0.6360683 0.0466417 
0.2459744 -0.4602428 0.615513 
0.270807 0.02699107 0.8085503 
0.2655874 -0.5726659 0.1835641 
0.3702153 -0.07007354 0.09953352 
0.3300458 0.2998793 -0.5042843 
-0.2606374 0.5736397 -0.1290568 
-0.1968631 0.2087704 0.005277503 
-0.2745268 -0.703968 -0.04047166 
0.3063982 -0.3775697 0.8823882 
0.3738398 -0.5594057 -0.01717463 
-0.3618715 -0.05990046 0.06519985 
0.08968519 0.7641999 -0.1554033 
0.2993418 0.08860108 0.05375681 
-0.1889925 -0.4620341 0.5091687 
0.3503789 -0.2827141 0.5870693 
-0.153275 -0.2252789 0.9410623 
0.1303943 0.1447507 -0.260457 
0.2401796 0.2141166 -0.2758632 
-0.2912592 -0.6904961 -0.04862381 
-0.3707513 -0.4554623 -0.05546581 
-0.2982018 -0.07468331 -0.07632217 
0.3607987 -0.3487936 0.2071605 
-0.3537962 0.01406677 0.218748 
-0.263579 -0.657195 -0.0932617 
-0.3634296 -0.5487882 0.1032208 
0.1235658 -0.5972286 0.102715 
0.3309519 -0.4091218 0.8475488 
0.2191089 -0.5672678 0.9266117 
0.3502654 -0.4604286 0.1553912 
0.08555844 0.3297946 0.04213567 
-0.1338002 -0.03686402 0.9646211 
0.3744386 -0.2811183 0.3324859 
-0.1556785 0.5040946 0.00635569 
0.2077641 0.3930727 -0.03196622 
0.3538443 -0.21774 0.5999407 
0.1628587 0.1346591 -0.121693 
0.2901782 0.333748 -0.2256262 
0.1002269 -0.4898565 0.673902 
-0.3417228 -0.4854773 0.7880833 
0.1746194 0.1750159 0.6537338 
0.360578 -0.2683867 0.4949382 
-0.331708 -0.5107155 0.163368 
0.183466 0.777751 -0.3382328 
-0.3360094 -0.02303908 0.6263529 
0.152233 -0.007557669 0.9432627 
-0.1506593 0.05543418 0.9060537 
0.1886621 0.1556465 -0.315789 
0.1901497 0.4081263 -0.612356 
0.3113733 -0.1091765 0.8158852 
0.1330476 0.1185184 0.8614058 
0.3002837 0.3694863 -0.5490267 
-0.3227207 -0.3884468 0.311046 
-0.2710336 0.09234449 0.5397123 
-0.2900475 0.1434025 0.1404422 
0.1843992 -0.3435971 0.922479 
-0.2747744 0.7619131 -0.2323433 
-0.1310753 -0.499166 0.3608034 
-0.06932266 -0.5079867 0.8324028 
-0.09345242 -0.3468228 -0.07446554 
-0.3707641 -0.1112303 0.08138275 
0.1901961 0.9421498 -0.2966369 
-0.3255997 0.2703333 -0.5299767 
0.2671078 -0.6068237 0.6714457 
0.3288367 -0.1816255 -0.07301714 
-0.3298 0.6112386 -0.2784222 
-0.01326407 0.8042072 -0.4067298 
0.3525401 -0.3723049 0.2151893 
-0.2914011 -0.6875662 0.7979966 
0.3625169 -0.2095597 -0.01566197 
-0.2739661 -0.4270687 0.5773376 
0.1699286 0.8507054 -0.222391 
-0.1751692 0.7851125 -0.3353695 
0.35326 0.001432575 0.288493 
-0.2721918 0.2718053 -0.6197596 
-0.2989361 -0.6314369 0.717491 
0.1371971 0.8571956 -0.3178036 
-0.3405266 -0.02055609 0.4931511 
-0.3417726 -0.07511691 0.6998557 
-0.04033403 -0.3893093 -0.01023312 
0.1322858 0.09377224 -0.1753964 
-0.1277544 -0.1725182 -0.1810849 
-0.3662556 -0.2368216 0.4587114 
0.09782411 0.3595245 -0.6549628 
0.1957723 0.4994164 -0.5461805 
-0.3318118 0.7250661 -0.1683422 
-0.2195289 -0.284921 0.917902 
-0.2541024 0.4828006 -0.1105986 
-0.01986149 0.1782181 0.8224761 
0.06070478 -0.4516112 0.7203025 
-0.2254892 0.893956 -0.2676003 
-0.1512757 -0.4900143 -0.08936761 
-0.2887171 0.04984791 -0.01383521 
0.2531217 0.1749961 -0.5542828 
-0.3254999 0.3615637 -0.3969177 
0.2525841 -0.4456931 0.2170687 
-0.1674887 -0.5118424 0.6401154 
0.1510246 -0.2771714 0.9334151 
-0.1133752 0.2048386 0.6628417 
-0.2617388 0.1812201 0.2722725 
0.2356282 0.7596862 -0.2394768 
0.3204591 -0.3946303 0.6253808 
0.1286518 0.461753 0.03276854 
0.2275674 0.1021156 -0.04932163 
-0.270837 0.5031091 -0.4795027 
-0.2523518 0.6744754 -0.3825359 
-0.1957732 0.8287881 -0.3184678 
-0.2070672 0.2067835 0.02201815 
-0.3805228 -0.5173438 -0.01382332 
0.173496 -0.7112637 -0.01199036 
-0.2582999 -0.497856 -0.1217999 
0.1422377 0.08993267 0.8838094 
0.1077647 -0.6817775 0.827054 
-0.2849785 0.1809142 -0.4880022 
0.03960045 -0.5175657 0.5119023 
0.1239337 0.1185356 -0.1991412 
-0.1392583 -0.4460284 0.2220047 
0.3361146 0.6507839 -0.1403135 
-0.3552826 -0.3510017 0.2903995 
0.3459741 -0.3493199 0.4951932 
-0.2616916 0.1633017 0.3178833 
-0.0525659 0.2961094 -0.6677815 
-0.2176031 0.1485128 0.5382379 
0.1311616 0.5014877 0.02357418 
0.2072361 0.1133183 -0.06458195 
-0.2902509 0.419478 -0.1999979 
-0.05712731 -0.3215763 0.9171402 
-0.3111196 0.2250673 -0.5349969 
0.3269294 -0.4328167 0.1907459 
-0.1874262 0.8418264 -0.3287585 
-0.0778351 -0.05237732 -0.2103404 
0.1896552 0.1228056 -0.4653379 
-0.1191842 -0.4677637 0.2698839 
-0.07032396 0.2628851 0.3999971 
0.01339853 0.833953 -0.2821319 
0.1444478 -0.5306387 -0.08461366 
0.2649398 0.4673221 -0.5198132 
-0.2497402 -0.6119676 0.9148321 
0.2283748 0.1713971 0.4044374 
0.3390443 -0.223687 -0.06973289 
0.1407418 -0.576654 0.13729 
-0.3764785 -0.5664073 0.02414409 
0.2265848 -0.442584 0.4569464 
-0.1768255 0.0252881 -0.1419269 
0.2826448 0.2521869 -0.603008 
-0.3333791 -0.5240306 0.8424144 
0.3276057 0.3275042 -0.3903708 
-0.1619821 -0.4922504 0.4820253 
-0.2988211 0.459098 -0.3968658 
-0.172439 -0.5283259 0.6444971 
0.3476986 -0.28559 0.6157938 
0.1752918 0.9515019 -0.2742056 
0.302009 -0.5109645 0.6704904 
0.3251809 -0.2653053 -0.09001861 
-0.1551107 -0.6617904 0.124235 
0.3861037 0.6155549 -0.2361184 
0.2573027 0.73177 -0.3160892 
-0.006917867 0.5049812 -0.5633349 
-0.0921644 -0.4748453 0.601127 
0.1915454 0.8032126 -0.2372183 
-0.113281 0.3736952 -0.6476519 
0.1881655 -0.1489257 -0.1611832 
0.125376 0.3093007 0.0739217 
-0.1981014 -0.6833053 0.1427073 
-0.1170844 0.8640444 -0.2282812 
-0.01979209 -0.03930542 -0.2277636 
0.1863277 0.01315714 0.9120403 
-0.2188718 0.9163184 -0.3007436 
0.2565514 -0.2330338 0.8979694 
-0.1901978 0.5795212 -0.07130241 
-0.3383784 -0.005152013 0.437638 
-0.1311037 0.4701415 0.03114845 
-0.1308165 -0.07281789 -0.1866708 
0.06635489 0.1017509 -0.4442303 
-0.3356151 -0.1821743 0.7423864 
-0.1045214 -0.5398877 0.05113389 
0.06580225 -0.4973248 0.7799291 
-0.2014869 0.8195211 -0.244519 
0.2083223 0.1414716 -0.3862414 
0.2150927 0.3502848 -0.06786971 
-0.1885214 -0.008038161 -0.1430516 
0.3221011 0.3730926 -0.3680493 
-0.1501537 -0.606645 0.1408177 
-0.1970706 0.1288162 -0.4107961 
-0.008450218 0.07296646 0.9386704 
0.3536688 0.6091326 -0.2586649 
-0.2989605 -0.5780858 0.6898035 
-0.1660624 0.09064551 0.8678142 
-0.3283996 -0.03163902 0.7158189 
-0.1595808 0.2698068 0.3388281 
-0.3843313 -0.1090335 0.176799 
0.3839325 0.6052867 -0.1950062 
-0.1143396 0.8779953 -0.278578 
0.1345748 -0.1947635 -0.1701574 
0.2378292 -0.1127933 0.9056463 
0.370492 -0.321891 0.1906597 
0.2464844 0.3209364 -0.1417016 
-0.01647965 -0.4079074 0.009998767 
0.2360044 -0.7175552 0.73413 
-0.1743528 -0.2587076 0.9313195 
-0.2083751 -0.2496193 -0.1321127 
0.33281 0.06008262 0.2068267 
0.2357375 0.2937145 -0.1519406 
-0.3473562 -0.1762598 0.6802166 
-0.3189728 -0.006258423 0.7136343 
-0.4418216 0.7434517 -0.2375945 
0.04612053 0.1954096 0.7804458 
0.01688071 -0.2476148 0.9536462 
-0.02628453 -0.5286447 0.4007736 
-0.3117951 0.08157676 0.305433 
-0.3746874 -0.1861062 0.3957179 
-0.1019162 -0.2072919 0.9576083 
0.2314955 0.7501453 -0.2843912 
0.1509145 0.838439 -0.3302812 
-0.1876047 0.5958399 -0.5062315 
-0.2147541 -0.4421197 0.2284594 
0.05953172 -0.4546937 0.6921425 
0.06958921 0.6098183 -0.005892889 
-0.1424391 0.01759152 -0.1692967 
-0.3207431 -0.4178705 0.6643236 
-0.02432547 -0.06449976 -0.2240405 
-0.3843727 -0.09681819 0.198163 
0.3300022 0.006503902 0.4702056 
-0.3329214 -0.2518944 0.7621955 
-0.0601825 0.7641081 -0.4446091 
0.1366324 -0.6893224 0.7179519 
0.289627 0.3944596 -0.1883066 
-0.227684 -0.7217879 -0.02130483 
-0.2479417 0.03907374 0.833074 
-0.01426038 -0.3338977 -0.08796693 
-0.02209298 0.5913025 0.01774616 
0.05966167 0.5080705 -0.5611014 
0.2211051 0.441282 -0.03501593 
-0.06161732 0.6728944 -0.4921964 
0.0957339 0.4735328 0.04397831 
-0.3670699 -0.05140676 0.1013596 
-0.3583525 -0.1675724 -0.002773837 
-0.2316054 0.2353338 0.1245238 
0.3574942 -0.3492573 0.2280056 
-0.3228881 0.3495728 -0.4977153 
-0.3401842 -0.01722083 0.4768683 
-0.3257975 -0.5266277 0.720354 
0.1121329 -0.5000874 0.6666914 
-0.2970235 0.2819893 -0.2971858 
0.2364269 -0.1711304 0.9072738 
-0.2961786 -0.01217772 -0.05181741 
